0,0,0,0,0,0,0,0,0,0,0,0,0,0,0,0,0,0,0,0,0,0,0,0,0,0,0,0,0,0,0,0,0,0,0,0,0,0,0,0,0,0,0,0,0,0,0,0,0,0,0,0,0,0,0,0,0,0,0,0,0,0,0,0,0,0,0,0,0,0,0,0,0,0,0,0,0,0,0,0,0,0,0,0,0,0,0,0,0,0,0,0,0,0,0,0,0,0,0,0,0,0,0,0,0,0,0,2,534,1093,1954,2505,2770,2773,2770,2770,2769,2769,2776,2777,2785,2790,2792,2772,2736,2718,2723,2727,3243,3502,3505,3488,3421,3403,3406,3408,3409,3401,3382,3373,3377,3382,3389,3391,3390,3390,3389,3389,3390,3394,3396,3137,2627,2372,2630,3143,3656,3914,3919,3923,3673,3422,3425,3428,3432,3433,3433,3432,3431,3430,3427,3428,3433,3436,3441,3443,3187,2666,2391,1866,1338,1086,1071,1604,3181,3704,2385,1886,1385,1386,1367,1893,3463,3993,3991,3997,4009,4015,3757,3753,4001,3999,4000,4005,3756,3760,3763,3509,2744,2749,2756,3270,2761,2748,3222,3239,2743,2479,2171,2447,3254,3529,3275,3277,3535,3537,3795,3794,3279,3265,3220,2705,2424,2145,1685,1434,907.0001,602,306,842.0001,2474,4046,4045,4046,4049,4050,4050,4049,3536,3255,2451,2448,2750,2503,1941,1961,3266,3536,3539,3286,3293,2767,2726,3252,3270,3278,3278,3280,3282,2762,2721,3252,3526,4047,4305,4305,4049,3531,3264,2745,2747,2743,2725,2447,2157,1906,1947,2488,3521,4042,4046,4050,3795,3279,2251,2244,3260,3503,3491,3496,3538,3550,3543,3539,3790,4045,4046,4047,4047,4049,4052,3798,3541,3542,3545,3544,3539,3522,3480,3500,3526,3536,3531,3530,3532,3535,3539,3542,3544,3542,3540,3528,3496,3517,3527,2744,1391,1389,2738,3786,4299,4301,3791,3535,3527,3521,3514,3511,3509,3508,3506,3506,3507,3506,3505,3503,3501,3498,3494,3494,3497,3497,3493,3489,3482,3479,3478,3479,3227,2184,1109,548,268,257,0,0,0,0,0,0,0,0,0,256,256,259,534,1069,2128,3170,3177,3437,3698,3955,3954,3947,3932,3921,3904,3638,3140,2634,2638,2635,2626,2616,2624,2626,3139,3395,3391,3391,3394,3392,3388,3385,3382,3384,3392,3396,3393,3389,3384,3384,3386,3397,3410,3414,3408,3406,3407,3406,3403,3409,3433,3471,3491,3501,3499,3498,3496,3493,3489,3495,3515,3528,3540,3549,3552,3554,3557,3556,3552,3550,3551,3550,3547,3544,3540,3537,3531,3528,3526,3523,3517,3515,3514,3511,3505,3502,3503,3498,3488,3485,3230,2451,2172,1876,1339,1600,2673,3202,3196,3191,3192,3189,3185,3440,3441,3441,3440,3435,3423,3414,3409,3405,3145,3142,3397,3140,2116,1588,792.0001,517,1,0,0,0,1,2,4,3,1,1,0,0,0,0,0,0,0,0,0,3,9,28,294,291,270,270,28,29,12,8,272,275,13,3,1,0,0,0,0,0,0,0,0,0,0,0,0,0,0,0,0,0,0,0,0,0,0,0,0,0,0,0,0,0,0,0,0,0,0,0,0,0,0,0,0,0,0,0,0,0,0,0,0,0,0,0,0,0,0,0,0,0,0,0,0,0,0,0,0,0,0,0,0,0,0,0,0,0,0,0,0,0,0,0,0,0,0,0,0,0,0,0,0,0,0,0,0,0,0,0,0,0,0,0,0,0
0,0,0,0,0,0,0,0,0,0,0,0,0,0,0,0,0,0,0,0,0,0,0,0,0,0,0,0,0,0,0,0,0,0,0,0,0,0,0,0,0,0,0,0,0,0,0,0,0,0,0,0,0,0,0,0,0,0,0,0,0,0,0,0,0,0,0,0,0,0,0,0,0,0,0,0,0,0,0,0,0,0,0,0,0,0,0,0,0,0,0,0,0,0,0,0,0,0,0,0,0,0,0,0,0,0,0,0,258,1059,1914,2468,2746,2748,2722,2706,2707,2713,2725,2740,2760,2770,2770,2767,2762,2759,2763,2768,3285,3546,3548,3540,3519,3510,3512,3516,3518,3499,3434,3422,3426,3430,3433,3434,3432,3431,3430,3422,3407,3398,3402,2619,1325,1063,1321,1834,3112,3625,4139,4144,3640,3388,3388,3391,3396,3397,3393,3393,3395,3395,3391,3392,3399,3404,3409,3156,2648,2389,2116,2104,1856,1854,1580,2102,3422,3686,2378,1607,1066,1066,1078,1874,3434,3956,3938,3956,3976,3985,4242,4239,3976,3972,3971,3974,3980,3985,3991,3737,3224,2714,3231,2722,2721,2719,2709,3221,3483,3226,2436,2443,3484,3494,2728,2730,3243,3244,3244,2733,2477,2211,2171,2172,1880,1620,1139,873.0001,566,284,17,305,1936,3765,3764,3766,3771,3774,3774,3772,3259,2731,2199,2182,2485,2228,1668,1686,2476,2745,2752,3270,3273,3267,3246,3244,3257,2751,2753,3266,3267,3258,3247,3245,3255,3259,3771,3772,3262,2732,1927,1651,1970,2227,2196,1884,1334,1072,1099,1654,2447,3238,3766,3777,3781,3260,2204,2220,3261,3524,3520,3524,3529,3529,3527,3524,3519,3773,3773,3774,3777,3778,3778,3522,3521,3521,3521,3520,3517,3501,3458,3475,3500,3510,3508,3507,3507,3507,3507,3507,3511,3503,3493,3468,3486,3491,3494,2444,1081,1080,2446,3754,4267,4268,3502,3243,3492,3487,3485,3484,3483,3481,3479,3478,3479,3479,3477,3477,3476,3474,3471,3469,3466,3462,3457,3455,3452,3451,3450,3196,2176,1129,559,266,262,258,256,0,0,0,0,0,0,0,1,1,1,1,2,271,1069,1856,2376,3151,3667,3925,3924,3921,3912,3897,3876,3611,3110,2605,2607,2608,2603,2606,2606,2614,3129,3384,3379,3378,3380,3380,3378,3375,3368,3380,3416,3432,3432,3430,3424,3430,3452,3495,3515,3522,3521,3520,3521,3519,3509,3514,3522,3529,3543,3548,3546,3543,3539,3535,3531,3529,3529,3527,3531,3527,3531,3531,3530,3528,3525,3523,3521,3520,3520,3517,3513,3509,3504,3503,3503,3500,3494,3490,3487,3479,3464,3466,3475,3473,3727,3724,3208,2427,1889,1350,1083,1097,2139,2662,2661,2661,2657,2652,2645,3154,3408,3408,3407,3403,3395,3131,3123,3119,3117,3118,3376,3119,2092,1569,785.0001,517,1,0,0,0,0,0,0,0,0,0,1,0,0,0,0,0,0,0,2,15,299,340,621,620,317,318,361,97.00001,46,296,321,340,74,33,4,0,0,0,0,0,0,0,0,0,0,0,0,0,0,0,0,0,0,0,0,0,0,0,0,0,0,0,0,0,0,0,0,0,0,0,0,0,0,0,0,0,0,0,0,0,0,0,0,0,0,0,0,0,0,0,0,0,0,0,0,0,0,0,0,0,0,0,0,0,0,0,0,0,0,0,0,0,0,0,0,0,0,0,0,0,0,0,0,0,0,0,0,0,0,0,0,0,0,0,0,0
0,0,0,0,0,0,0,0,0,0,0,0,0,0,0,0,0,0,0,0,0,0,0,0,0,0,0,0,0,0,0,0,0,0,0,0,0,0,0,0,0,0,0,0,0,0,0,0,0,0,0,0,0,0,0,0,0,0,0,0,0,0,0,0,0,0,0,0,0,0,0,0,0,0,0,0,0,0,0,0,0,0,0,0,0,0,0,0,0,0,0,0,0,0,0,0,0,0,0,0,0,0,0,0,0,0,0,0,256,528,1090,1659,2459,2453,2408,2390,2130,2132,2415,2709,2734,2748,2749,2752,2758,2763,2767,3286,3549,3555,3558,3555,3547,3543,3545,3547,3549,3534,3506,3494,3499,3502,3504,3504,3503,3501,3499,3489,3473,3430,3441,2635,1343,1086,1351,1860,2614,3633,3890,3896,3646,3393,3392,3393,3397,3397,3394,3388,3378,3374,3377,3379,3379,3380,3385,3133,2625,2365,2361,2362,2365,2366,2361,2625,3404,3407,2626,2100,1296,1034,1312,2110,3406,3921,3921,3927,3942,3951,4210,4209,3947,3944,3942,3944,3948,3952,3958,3704,3190,3191,3196,2686,2685,2686,2687,3197,3454,3456,2684,2684,3457,3461,2695,2696,3464,3463,3207,2696,2442,2184,2167,1899,1628,1360,1090,559,278,266,265,556,2172,3482,3482,3484,3490,3492,3492,3491,3231,2715,2450,2200,2464,2461,1923,1920,2191,2459,2725,3244,3502,3498,3488,3482,3232,3236,3237,3239,3497,3494,3741,3480,3229,3231,3486,3489,3236,2451,1886,1886,1952,2214,1924,1614,1057,788.0001,543,1076,1623,2423,2708,3237,3754,3498,2714,2460,3251,3512,3515,3514,3510,3505,3499,3493,3490,3489,3492,3494,3496,3497,3497,3496,3496,3240,3240,3238,3234,3223,3205,3460,3478,3487,3486,3486,3485,3483,3480,3479,3480,3475,3714,3714,3725,3727,3727,2671,1321,1322,2680,3730,3984,3984,3472,3214,3463,3460,3459,3201,3196,3196,3710,3711,3455,3454,3454,3453,3452,3451,3448,3444,3437,3432,3428,3426,3425,3425,3424,3170,1897,1111,545,521,271,266,257,0,0,0,0,0,0,0,0,0,0,0,0,261,546,1072,2098,3126,3643,3901,3903,3901,3891,3886,3875,3619,3123,2617,2612,2614,2612,2624,2638,3157,3415,3413,3409,3407,3409,3407,3400,3397,3398,3417,3485,3506,3508,3507,3501,3507,3523,3535,3552,3560,3556,3555,3556,3554,3549,3545,3548,3550,3556,3558,3556,3552,3548,3543,3537,3532,3524,3519,3512,3512,3512,3511,3509,3506,3502,3499,3497,3495,3495,3236,3230,3226,3224,3223,3223,3221,3215,3210,3207,3198,3173,3180,3193,3450,3706,3703,3185,2661,2126,1606,1085,1343,2376,2638,2640,2640,2635,2628,2623,3133,3387,3387,3384,3122,2601,2337,2075,2327,2325,2583,2585,2329,1557,1038,519,258,1,0,0,0,0,0,0,0,0,0,1,1,1,2,4,4,1,2,10,289,321,617,902.0001,903.0001,624,624,387,387,340,344,617,360,83,34,8,0,0,0,0,0,0,0,0,0,0,0,0,0,0,0,0,0,0,0,0,0,0,0,0,0,0,0,0,0,0,0,0,0,0,0,0,0,0,0,0,0,0,0,0,0,0,0,0,0,0,0,0,0,0,0,0,0,0,0,0,0,0,0,0,0,0,0,0,0,0,0,0,0,0,0,0,0,0,0,0,0,0,0,0,0,0,0,0,0,0,0,0,0,0,0,0,0,0,0,0,0
0,0,0,0,0,0,0,0,0,0,0,0,0,0,0,0,0,0,0,0,0,0,0,0,0,0,0,0,0,0,0,0,0,0,0,0,0,0,0,0,0,0,0,0,0,0,0,0,0,0,0,0,0,0,0,0,0,0,0,0,0,0,0,0,0,0,0,0,0,0,0,0,0,0,0,0,0,0,0,0,0,0,0,0,0,0,0,0,0,0,0,0,0,0,0,0,0,0,0,0,0,0,0,0,0,0,0,0,1,5,292,588,1389,2165,1892,1620,1086,1331,2132,2686,3220,3232,3235,3238,3242,3246,3249,3511,3519,3524,3530,3533,3532,3532,3533,3534,3535,3534,3531,3532,3543,3546,3548,3548,3547,3545,3541,3536,3530,3514,3476,3182,2702,2464,2742,2731,3181,3420,3679,3682,3430,3431,3429,3428,3428,3428,3428,3412,3377,3369,3387,3380,3370,3363,3368,3370,3115,3117,3121,3123,3123,3122,3121,3121,3382,3379,3123,3113,2567,2562,2575,3108,3379,3644,3646,3650,3654,3659,3664,3666,3665,3663,3661,3661,3661,3663,3666,3412,3413,3415,3420,3422,3420,3421,3425,3427,3430,3430,3429,3430,3433,3434,3435,3435,3433,3432,3431,3176,3178,3178,3174,2399,1873,1085,533,522,795.0001,1078,1073,1360,2669,3452,3455,3457,3459,3460,3461,3459,3455,3455,3203,3205,3206,3200,3187,3182,3175,3191,3211,3470,3469,3467,3464,3463,3976,3721,3466,3468,3468,3723,4487,4228,3460,3460,3459,3461,3464,3202,2675,3190,3467,3470,2686,2142,1055,514,520,533,1321,1858,2154,2686,3982,4241,3724,3467,3215,3220,3471,3474,3477,3473,3198,3186,3444,3447,3459,3462,3460,3462,3464,3466,3210,2698,2695,2694,2690,2685,2678,3191,3455,3459,3461,3461,3460,3458,3455,3454,3455,3709,3962,4217,4219,4219,3961,3433,2635,2619,3175,3447,3701,3700,3443,3440,3692,3689,3177,2659,2133,2645,3941,4459,3687,3429,3429,3428,3425,3422,3417,3413,3406,3400,3399,3397,3394,3395,3389,3138,2379,2116,1830,1576,803.0001,308,258,0,0,0,0,0,0,0,0,0,0,0,0,263,582,1072,1582,2349,3117,3118,3631,3629,3622,3625,3635,3392,3421,3175,3171,3168,3168,3184,3250,3522,3522,3520,3518,3517,3517,3508,3488,3490,3501,3517,3537,3548,3548,3547,3543,3544,3549,3548,3555,3546,3541,3540,3541,3539,3533,3530,3531,3531,3532,3531,3530,3526,3519,3512,3503,3496,3493,3491,3490,3491,3493,3492,3488,3484,3479,3475,3471,3470,3215,2701,2696,2693,2690,2688,2687,2685,2681,2677,2673,2667,2656,2655,2659,3173,3426,3422,3415,3151,2631,2111,1848,2102,2614,3122,3126,3120,3113,3114,3106,3364,3373,2606,2595,2078,1551,1031,1028,1027,1283,1540,1284,1028,515,514,257,257,1,0,0,0,0,0,0,0,0,0,0,4,272,286,295,287,6,6,33,328,603,1140,1159,1167,1166,1165,1172,1170,1159,1149,1143,607,35,6,1,0,0,0,0,0,0,0,0,0,0,0,0,0,0,0,0,0,0,0,0,0,0,0,0,0,0,0,0,0,0,0,0,0,0,0,0,0,0,0,0,0,0,0,0,0,0,0,0,0,0,0,0,0,0,0,0,0,0,0,0,0,0,0,0,0,0,0,0,0,0,0,0,0,0,0,0,0,0,0,0,0,0,0,0,0,0,0,0,0,0,0,0,0,0,0,0,0,0,0,0,0
0,0,0,0,0,0,0,0,0,0,0,0,0,0,0,0,0,0,0,0,0,0,0,0,0,0,0,0,0,0,0,0,0,0,0,0,0,0,0,0,0,0,0,0,0,0,0,0,0,0,0,0,0,0,0,0,0,0,0,0,0,0,0,0,0,0,0,0,0,0,0,0,0,0,0,0,0,0,0,0,0,0,0,0,0,0,0,0,0,0,0,0,0,0,0,0,0,0,0,0,0,0,0,0,0,0,0,0,1,1,7,289,1094,1616,1609,1326,1049,1058,2133,2674,3202,3466,3468,3471,3475,3477,3479,3484,3492,3499,3505,3510,3513,3514,3514,3515,3516,3521,3531,3538,3545,3548,3552,3553,3553,3552,3548,3547,3549,3534,3495,3465,3479,3523,3543,3539,3507,3491,3492,3494,3498,3498,3497,3496,3496,3496,3497,3479,3413,3405,3425,3451,3405,3396,3400,3398,3394,3399,3415,3416,3413,3412,3413,3410,3403,3402,3405,3392,3373,3347,3344,3352,3362,3370,3375,3376,3375,3377,3382,3386,3388,3388,3386,3385,3384,3384,3386,3388,3390,3392,3394,3396,3395,3396,3398,3399,3401,3402,3402,3403,3405,3406,3406,3405,3403,3402,3401,3402,3403,3405,3408,2633,1582,791.0001,256,513,1054,1595,2121,2383,3160,3423,3426,3428,3429,3429,3430,3428,3424,3426,3434,3436,3433,3427,3420,3415,3412,3423,3435,3437,3435,3435,3436,3437,3435,3177,2407,2406,2662,3176,4203,4204,3690,3434,3434,3435,3438,3437,3434,3435,3699,3700,3183,2391,1311,1031,525,785.0001,1308,1590,1613,2130,3691,4212,4216,3700,2157,1893,1888,2145,2154,1894,1863,1858,2371,2388,2402,2403,2139,2137,2141,2142,2658,2659,2661,2661,2659,2658,2658,2659,3174,3432,3434,3434,3433,3431,3428,3427,3427,3684,4196,4452,4451,4194,3936,3673,3403,3398,3412,3417,3415,3413,3412,3666,3919,3661,3149,2373,1575,1833,3648,4171,3655,3399,3400,3400,3398,3395,3393,3388,3380,3376,3376,3378,3382,3385,3384,3128,2360,2358,3124,2098,804.0001,279,4,0,0,0,0,0,0,0,0,256,0,0,0,5,290,809.0001,1331,2362,2632,3151,3408,3407,3404,3406,3423,3471,3494,3504,3500,3497,3496,3507,3542,3558,3555,3553,3551,3549,3552,3539,3499,3513,3530,3542,3550,3553,3552,3550,3550,3547,3546,3538,3529,3524,3523,3523,3523,3521,3517,3514,3512,3511,3507,3506,3504,3501,3495,3487,3477,3470,3468,3468,3469,3471,3472,3471,3466,3462,3456,3452,3448,3447,3191,2677,2671,2668,2666,2665,2663,2661,2658,2654,2648,2643,2635,2634,2635,3147,3401,3399,3394,3135,2621,2612,2363,2362,2365,2619,2606,2605,2605,2611,2614,2618,2621,2358,2087,1558,1028,512,256,256,512,512,512,256,256,256,0,0,0,0,0,0,0,0,0,0,0,0,0,263,292,325,589,327,24,17,41,330,590,1131,1145,1159,1161,1159,1158,1158,1160,1150,1132,576,273,0,0,0,0,0,0,0,0,0,0,0,0,0,0,0,0,0,0,0,0,0,0,0,0,0,0,0,0,0,0,0,0,0,0,0,0,0,0,0,0,0,0,0,0,0,0,0,0,0,0,0,0,0,0,0,0,0,0,0,0,0,0,0,0,0,0,0,0,0,0,0,0,0,0,0,0,0,0,0,0,0,0,0,0,0,0,0,0,0,0,0,0,0,0,0,0,0,0,0,0,0,0,0
0,0,0,0,0,0,0,0,0,0,0,0,0,0,0,0,0,0,0,0,0,0,0,0,0,0,0,0,0,0,0,0,0,0,0,0,0,0,0,0,0,0,0,0,0,0,0,0,0,0,0,0,0,0,0,0,0,0,0,0,0,0,0,0,0,0,0,0,0,0,0,0,0,0,0,0,0,0,0,0,0,0,0,0,0,0,0,0,0,0,0,0,0,0,0,0,0,0,0,0,0,0,0,0,0,0,0,0,0,0,1,263,1051,1315,1836,1563,1032,1303,2131,2667,3183,3441,3444,3446,3449,3453,3454,3458,3466,3472,3478,3483,3485,3487,3487,3487,3488,3492,3497,3503,3506,3510,3515,3518,3520,3520,3520,3521,3523,3522,3511,3503,3515,3525,3539,3538,3535,3531,3528,3528,3531,3532,3532,3534,3538,3539,3540,3531,3514,3507,3522,3524,3511,3506,3507,3500,3486,3461,3515,3522,3518,3516,3517,3511,3468,3489,3489,3450,3435,3405,3366,3351,3355,3358,3361,3362,3359,3360,3364,3368,3372,3372,3371,3370,3370,3370,3372,3373,3376,3375,3372,3372,3375,3374,3368,3366,3368,3369,3370,3371,3372,3373,3374,3373,3371,3371,3371,3371,3370,3372,3377,2344,1033,256,256,257,1303,2355,3388,3648,3396,3399,3401,3403,3404,3405,3404,3402,3399,3400,3407,3410,3408,3404,3399,3397,3399,3403,3407,3408,3407,3407,3410,3411,2388,1870,1345,1340,1854,2373,3664,3925,3669,3413,3413,3415,3417,3416,3413,3413,3416,3418,3418,3151,2363,2083,1846,1846,1846,1850,1590,2110,3404,4181,3927,3155,1350,816.0001,801.0001,543,551,822.0001,812.0001,1065,1311,1586,1348,1095,813.0001,543,539,1053,2089,2614,2622,2627,2629,2630,2631,2632,3148,3405,3406,3405,3404,3403,3400,3399,3400,3656,4168,4423,4165,3908,3396,3137,3388,3388,3382,3382,3379,3378,3377,3632,3886,3629,3118,2084,1028,1028,2076,3114,3371,3374,3377,3380,3382,3380,3378,3374,3366,3361,3361,3370,3389,3394,3397,3128,2338,2598,3129,2099,533,2,0,0,0,0,0,0,0,0,0,256,256,0,0,0,261,537,1112,1920,2726,3259,3516,3515,3511,3516,3522,3530,3537,3541,3540,3539,3534,3538,3543,3545,3543,3542,3539,3537,3535,3527,3513,3510,3519,3525,3527,3526,3522,3518,3516,3514,3512,3507,3494,3490,3495,3499,3497,3495,3492,3490,3488,3486,3483,3481,3479,3476,3473,3466,3457,3450,3447,3447,3449,3451,3451,3449,3443,3438,3434,3430,3426,3424,3422,3162,3156,3153,3153,3153,3150,3149,3148,3142,3132,3122,3119,3116,3116,3373,3629,3630,3373,3117,2604,2608,2622,2383,2143,2135,2113,2108,2126,2140,2153,2183,2173,1895,1618,1057,517,256,256,256,256,256,256,0,0,0,0,0,0,0,0,0,0,0,0,0,0,0,0,14,323,343,351,343,62,33,35,313,579,851.0001,1124,1131,624,615,607,606,613,602,585,294,7,0,0,0,0,0,0,0,0,0,0,0,0,0,0,0,0,0,0,0,0,0,0,0,0,0,0,0,0,0,0,0,0,0,0,0,0,0,0,0,0,0,0,0,0,0,0,0,0,0,0,0,0,0,0,0,0,0,0,0,0,0,0,0,0,0,0,0,0,0,0,0,0,0,0,0,0,0,0,0,0,0,0,0,0,0,0,0,0,0,0,0,0,0,0,0,0,0,0,0,0,0,0,0
0,0,0,0,0,0,0,0,0,0,0,0,0,0,0,0,0,0,0,0,0,0,0,0,0,0,0,0,0,0,0,0,0,0,0,0,0,0,0,0,0,0,0,0,0,0,0,0,0,0,0,0,0,0,0,0,0,0,0,0,0,0,0,0,0,0,0,0,0,0,0,0,0,0,0,0,0,0,0,0,0,0,0,0,0,0,0,0,0,0,0,0,0,0,0,0,0,0,0,0,0,0,0,0,0,0,0,0,0,0,1,258,521,1040,1561,1809,1285,1557,2373,2653,3162,3420,3421,3424,3427,3431,3432,3436,3443,3448,3454,3459,3461,3462,3461,3462,3463,3465,3469,3472,3476,3480,3486,3490,3493,3495,3495,3496,3499,3503,3504,3504,3505,3506,3522,3527,3533,3533,3529,3526,3525,3527,3534,3538,3544,3546,3546,3543,3537,3540,3549,3547,3539,3535,3536,3530,3518,3522,3542,3549,3540,3536,3538,3536,3529,3527,3527,3519,3511,3485,3415,3394,3394,3395,3398,3398,3395,3395,3397,3399,3403,3404,3404,3404,3404,3405,3406,3407,3410,3406,3396,3396,3406,3401,3382,3372,3375,3376,3376,3377,3378,3380,3382,3380,3379,3378,3378,3377,3374,3379,3392,2361,1051,520,270,528,1299,2343,3647,3913,3651,3390,3385,3384,3385,3385,3385,3382,3378,3379,3386,3388,3387,3385,3380,3379,3382,3385,3386,3387,3387,3388,3390,3134,2110,1074,797.0001,787.0001,1047,1571,3124,3646,3392,3394,3394,3395,3397,3397,3393,3392,3394,3396,3399,3395,3129,3128,3134,2626,2365,2102,1823,2079,3382,3903,3649,2619,1070,531,259,258,264,271,528,527,778.0001,784.0001,552,553,280,265,257,514,1801,2583,2598,2606,2608,2610,2610,2612,3128,3384,3384,3382,3382,3379,3378,3377,3378,3634,4145,4148,3897,3382,2605,2603,3123,3379,3382,3384,3382,3382,3380,3379,3634,3634,3120,2088,1045,1043,1571,2093,3119,3382,3391,3400,3408,3411,3411,3408,3402,3400,3400,3409,3425,3464,3433,3186,1831,1812,2094,1094,263,0,0,0,0,0,0,0,0,0,0,256,256,0,0,0,256,268,569,1385,2494,3291,3548,3547,3544,3548,3547,3546,3546,3546,3546,3545,3541,3538,3532,3522,3526,3524,3521,3519,3515,3509,3504,3501,3503,3505,3503,3499,3494,3490,3488,3488,3484,3477,3464,3446,3471,3475,3475,3473,3472,3470,3468,3466,3462,3459,3457,3455,3451,3444,3435,3428,3425,3425,3426,3426,3426,3424,3418,3414,3408,3405,3403,3402,3400,3141,3136,3133,3131,3129,3126,3126,3124,3123,3126,3128,3128,3126,3123,3382,3645,3646,3128,2612,2358,2358,2117,2160,1660,1399,1370,1336,1383,1401,1415,1408,1362,1087,814.0001,534,261,256,256,0,0,0,0,0,0,0,0,0,1,1,257,257,257,257,0,0,0,0,0,12,313,320,317,329,54,30,23,275,287,553,564,584,326,316,301,301,300,295,280,266,2,0,0,0,0,0,0,0,0,0,0,0,0,0,0,0,0,0,0,0,0,0,0,0,0,0,0,0,0,0,0,0,0,0,0,0,0,0,0,0,0,0,0,0,0,0,0,0,0,0,0,0,0,0,0,0,0,0,0,0,0,0,0,0,0,0,0,0,0,0,0,0,0,0,0,0,0,0,0,0,0,0,0,0,0,0,0,0,0,0,0,0,0,0,0,0,0,0,0,0,0,0,0,0
0,0,0,0,0,0,0,0,0,0,0,0,0,0,0,0,0,0,0,0,0,0,0,0,0,0,0,0,0,0,0,0,0,0,0,0,0,0,0,0,0,0,0,0,0,0,0,0,0,0,0,0,0,0,0,0,0,0,0,0,0,0,0,0,0,0,0,0,0,0,0,0,0,0,0,0,0,0,0,0,0,0,0,0,0,0,0,0,0,0,0,0,0,0,0,0,0,0,0,0,0,0,0,0,0,0,0,0,0,0,0,1,259,519,1295,1556,1807,2076,2353,2622,3136,3395,3396,3399,3405,3407,3409,3413,3420,3424,3427,3430,3433,3433,3432,3431,3434,3436,3438,3441,3446,3453,3462,3468,3471,3472,3471,3472,3475,3479,3483,3482,3481,3483,3498,3502,3501,3500,3498,3492,3483,3489,3505,3508,3516,3517,3517,3518,3520,3523,3526,3525,3519,3517,3518,3519,3519,3523,3530,3526,3510,3482,3485,3516,3530,3538,3541,3542,3544,3533,3511,3501,3504,3506,3508,3507,3505,3504,3505,3506,3508,3509,3510,3511,3513,3514,3514,3515,3516,3509,3483,3460,3512,3504,3434,3416,3419,3421,3421,3421,3423,3424,3425,3425,3426,3424,3422,3420,3418,3425,3478,2681,1890,1102,1090,1068,1040,1571,2648,3433,3408,3393,3372,3361,3364,3366,3368,3366,3361,3361,3364,3367,3368,3367,3366,3366,3368,3369,3370,3373,3376,3377,3375,3117,2088,1047,513,256,513,1041,2335,3115,3376,3378,3379,3380,3382,3380,3376,3376,3378,3380,3382,3382,3636,3638,3643,3642,3126,2596,2067,2328,3361,3626,3376,2349,1054,524,256,256,257,264,525,527,268,266,273,14,12,8,2,516,1555,2332,2595,2600,2599,2599,2598,2598,3112,3368,3366,3364,3363,3362,3361,3361,3360,3616,3873,3884,3390,2618,2076,2068,3117,3392,3413,3429,3428,3428,3427,3426,3424,3422,3419,2390,1360,1104,1365,2137,3164,3430,3456,3495,3513,3521,3520,3519,3517,3516,3515,3519,3525,3528,3527,2718,1072,519,533,270,2,0,0,0,0,0,0,0,0,0,1,257,256,0,0,0,0,258,284,1100,2473,3278,3533,3532,3530,3528,3524,3522,3520,3518,3515,3514,3513,3510,3505,3502,3502,3501,3498,3495,3492,3489,3486,3484,3484,3482,3479,3476,3473,3471,3470,3467,3462,3455,3446,3444,3449,3452,3453,3453,3452,3451,3449,3446,3441,3438,3435,3431,3427,3420,3411,3406,3405,3401,3398,3396,3396,3395,3390,3386,3379,3378,3380,3379,3128,2614,2612,2606,2598,2591,2589,2587,2581,2601,2635,2657,2660,2661,2654,3169,3187,2701,2397,2159,1903,1639,1630,1350,847.0001,854.0001,807.0001,796.0001,809.0001,816.0001,819.0001,556,534,265,262,259,257,1,1,1,0,0,0,0,0,0,0,0,1,4,275,534,537,272,2,0,0,0,0,2,12,16,271,270,12,9,4,259,260,262,269,272,19,15,8,5,5,4,2,1,0,0,0,0,0,0,0,0,0,0,0,0,0,0,0,0,0,0,0,0,0,0,0,0,0,0,0,0,0,0,0,0,0,0,0,0,0,0,0,0,0,0,0,0,0,0,0,0,0,0,0,0,0,0,0,0,0,0,0,0,0,0,0,0,0,0,0,0,0,0,0,0,0,0,0,0,0,0,0,0,0,0,0,0,0,0,0,0,0,0,0,0,0,0,0,0,0,0,0,0,0,0,0,0
0,0,0,0,0,0,0,0,0,0,0,0,0,0,0,0,0,0,0,0,0,0,0,0,0,0,0,0,0,0,0,0,0,0,0,0,0,0,0,0,0,0,0,0,0,0,0,0,0,0,0,0,0,0,0,0,0,0,0,0,0,0,0,0,0,0,0,0,0,0,0,0,0,0,0,0,0,0,0,0,0,0,0,0,0,0,0,0,0,0,0,0,0,0,0,0,0,0,0,0,0,0,0,0,0,0,0,0,1,1,0,0,257,516,1044,1823,1832,2092,2343,2599,3114,3374,3376,3378,3382,3385,3387,3389,3395,3399,3403,3405,3406,3406,3405,3407,3410,3412,3415,3418,3422,3429,3437,3443,3446,3447,3446,3447,3451,3455,3461,3460,3452,3440,3472,3479,3477,3475,3474,3469,3457,3446,3481,3491,3491,3493,3493,3495,3501,3503,3504,3503,3500,3499,3500,3503,3508,3512,3513,3506,3493,3486,3490,3503,3523,3534,3537,3542,3547,3545,3537,3534,3539,3541,3542,3541,3540,3539,3539,3540,3541,3542,3545,3547,3550,3551,3550,3550,3551,3543,3531,3530,3549,3540,3509,3492,3495,3497,3497,3497,3499,3500,3501,3501,3503,3502,3498,3495,3489,3498,3519,3268,2486,1957,1939,1622,1062,1069,2193,2729,3218,3425,3406,3399,3399,3400,3403,3402,3399,3398,3399,3400,3401,3402,3402,3402,3404,3404,3406,3408,3411,3412,3411,3153,2639,1597,536,260,258,521,1571,2617,3145,3410,3411,3412,3414,3413,3409,3408,3411,3413,3414,3415,3673,3675,3677,3675,3415,3147,2358,2355,3386,3652,3154,2384,1609,1080,537,273,287,557,1088,1083,289,12,4,5,281,289,296,561,1597,2373,2634,2636,2634,2633,2632,2633,3146,3401,3398,3397,3396,3395,3396,3396,3395,3651,3908,3662,3171,2160,1572,1564,2614,3444,3483,3502,3501,3500,3499,3498,3497,3495,3491,3233,1952,1697,1954,2212,3237,3502,3518,3534,3550,3557,3556,3556,3557,3557,3555,3554,3553,3552,3550,2743,1109,547,272,7,2,0,0,0,0,0,2,2,3,4,12,265,257,0,0,0,0,2,264,843.0001,2198,3258,3513,3513,3511,3507,3501,3498,3496,3494,3490,3488,3487,3485,3481,3480,3480,3479,3476,3473,3470,3468,3466,3464,3461,3459,3455,3453,3451,3450,3449,3446,3441,3436,3430,3428,3430,3431,3430,3429,3429,3428,3426,3423,3417,3414,3410,3406,3401,3396,3391,3389,3386,3382,3377,3375,3375,3374,3372,3375,3382,3384,3375,3116,2094,1839,1846,1841,1817,1805,1804,1802,1798,1819,1887,1915,1935,1935,1926,1925,1943,1681,1394,1106,1096,828.0001,569,557,562,555,527,518,525,527,527,262,256,0,0,0,0,1,1,1,0,0,0,0,0,0,0,0,1,264,559,825.0001,831.0001,552,264,0,0,0,0,0,0,0,0,0,0,1,0,0,0,0,0,0,0,0,0,0,0,0,0,0,0,0,0,0,0,0,0,0,0,0,0,0,0,0,0,0,0,0,0,0,0,0,0,0,0,0,0,0,0,0,0,0,0,0,0,0,0,0,0,0,0,0,0,0,0,0,0,0,0,0,0,0,0,0,0,0,0,0,0,0,0,0,0,0,0,0,0,0,0,0,0,0,0,0,0,0,0,0,0,0,0,0,0,0,0,0,0,0,0,0,0,0,0,0,0,0,0,0,0,0,0,0,0,0
0,0,0,0,0,0,0,0,0,0,0,0,0,0,0,0,0,0,0,0,0,0,0,0,0,0,0,0,0,0,0,0,0,0,0,0,0,0,0,0,0,0,0,0,0,0,0,0,0,0,0,0,0,0,0,0,0,0,0,0,0,0,0,0,0,0,0,0,0,0,0,0,0,0,0,0,0,0,0,0,0,0,0,0,0,0,0,0,0,0,0,0,0,0,0,0,0,0,0,0,0,0,0,0,0,0,0,0,0,1,0,0,0,261,1054,1850,1873,1874,2090,2584,3099,3356,3358,3358,3360,3360,3360,3361,3366,3371,3379,3380,3375,3373,3377,3382,3388,3392,3395,3398,3401,3405,3412,3415,3416,3417,3418,3421,3427,3432,3437,3438,3432,3435,3444,3451,3448,3447,3446,3445,3445,3452,3466,3470,3468,3468,3467,3469,3473,3475,3476,3476,3476,3476,3476,3477,3480,3483,3484,3484,3483,3484,3487,3494,3502,3509,3511,3513,3515,3515,3515,3517,3522,3525,3525,3525,3525,3525,3525,3526,3528,3530,3533,3535,3538,3539,3539,3538,3534,3536,3534,3538,3541,3542,3534,3531,3533,3534,3534,3535,3537,3538,3538,3540,3543,3542,3537,3536,3537,3540,3545,3290,2781,2260,2250,1959,1098,1106,2232,2776,3276,3521,3509,3505,3505,3507,3510,3510,3509,3508,3508,3508,3508,3509,3510,3511,3512,3514,3516,3517,3518,3519,3520,3777,4037,2733,1122,318,22,280,1090,2185,3248,3523,3522,3524,3526,3524,3520,3519,3520,3521,3522,3523,3267,3268,3269,3268,3521,3253,2433,2453,3225,3463,3257,3265,3519,3239,1886,1367,1413,1918,3253,2464,608,286,265,272,570,1137,1128,1432,2475,2742,2745,2745,2743,2743,2744,2745,3257,3512,3509,3507,3506,3506,3508,3508,3764,4020,4020,3771,2756,1959,1095,1330,2641,3450,3524,3549,3546,3544,3542,3541,3285,3285,3795,3538,2770,2514,2770,3283,3539,3541,3542,3545,3547,3548,3548,3549,3551,3551,3547,3543,3538,3534,3531,3258,2456,1390,292,6,259,257,256,0,0,3,10,17,15,28,68,300,269,0,0,0,0,1,5,560,1921,3234,3489,3488,3485,3482,3477,3475,3474,3473,3468,3466,3464,3462,3458,3457,3459,3458,3454,3452,3450,3448,3443,3439,3435,3432,3430,3429,3429,3428,3425,3423,3422,3420,3415,3412,3412,3409,3405,3403,3403,3401,3398,3395,3389,3386,3382,3377,3371,3370,3374,3374,3368,3363,3362,3362,3361,3360,3360,3379,3420,3421,3137,2354,1586,1111,1127,1117,1043,1025,1026,1026,1026,1034,1060,1088,1148,1157,1117,873.0001,855.0001,610,558,537,271,269,263,262,260,260,257,256,257,257,257,257,0,0,0,0,0,0,0,0,0,0,0,0,0,0,256,256,0,266,555,1088,1110,578,270,1,0,0,0,0,0,0,0,0,0,0,0,0,0,1,1,1,0,0,0,0,0,0,0,0,0,0,0,0,0,0,0,0,0,0,0,0,0,0,0,0,0,0,0,0,0,0,0,0,0,0,0,0,0,0,0,0,0,0,0,0,0,0,0,0,0,0,0,0,0,0,0,0,0,0,0,0,0,0,0,0,0,0,0,0,0,0,0,0,0,0,0,0,0,0,0,0,0,0,0,0,0,0,0,0,0,0,0,0,0,0,0,0,0,0,0,0,0,0,0,0,0,0,0,0,0,0,0,0
0,0,0,0,0,0,0,0,0,0,0,0,0,0,0,0,0,0,0,0,0,0,0,0,0,0,0,0,0,0,0,0,0,0,0,0,0,0,0,0,0,0,0,0,0,0,0,0,0,0,0,0,0,0,0,0,0,0,0,0,0,0,0,0,0,0,0,0,0,0,0,0,0,0,0,0,0,0,0,0,0,0,0,0,0,0,0,0,0,0,0,0,0,0,0,0,0,0,0,0,0,0,0,0,0,0,0,0,0,0,0,0,0,260,803.0001,1373,1682,1939,2386,2370,3139,3140,3141,3138,3133,3126,3119,3117,3375,3386,3405,3406,3388,3378,3378,3377,3377,3378,3382,3384,3386,3389,3392,3392,3392,3393,3395,3399,3405,3409,3412,3413,3413,3414,3420,3428,3425,3425,3424,3425,3430,3438,3443,3447,3448,3447,3447,3447,3449,3451,3454,3456,3453,3455,3456,3459,3461,3463,3464,3465,3469,3472,3475,3480,3482,3486,3488,3488,3487,3488,3492,3496,3502,3505,3505,3506,3508,3509,3508,3508,3511,3513,3516,3518,3521,3522,3522,3520,3517,3514,3521,3523,3526,3530,3535,3538,3540,3540,3541,3542,3544,3545,3545,3546,3549,3548,3544,3543,3546,3542,3546,3549,3295,2529,2526,2242,1648,1673,2501,3293,3542,3542,3539,3541,3540,3542,3543,3544,3544,3543,3543,3543,3544,3545,3546,3547,3548,3549,3551,3552,3552,3553,3554,3812,4069,3284,1713,906.0001,326,581,1388,2216,3277,3551,3553,3554,3557,3558,3555,3556,3556,3556,3558,3558,3302,2789,2788,3299,3556,3292,2762,2754,3265,3530,3291,3556,4068,4048,2731,2466,2483,2760,4059,3260,852.0001,288,263,275,569,1147,1694,1981,2512,2778,2779,2778,2773,2773,2778,3293,3550,3549,3546,3544,3542,3542,3801,4058,4058,4058,4058,3547,2782,2244,1413,1626,2697,3498,3536,3557,3553,3550,3548,3547,3292,3292,3803,3802,3289,3289,3545,3545,3540,3543,3538,3534,3530,3528,3528,3530,3532,3532,3528,3522,3515,3510,3507,3503,2729,1923,560,264,262,260,257,0,1,2,15,45,50,303,608,582,289,8,1,0,0,1,2,545,1644,2696,3466,3466,3463,3459,3455,3454,3453,3451,3447,3444,3442,3439,3436,3434,3436,3435,3431,3430,3429,3426,3420,3415,3409,3406,3403,3403,3404,3403,3400,3399,3399,3400,3400,3399,3396,3392,3385,3123,2610,2609,2608,3124,3134,3394,3390,3386,3382,3133,3150,3156,3149,3145,3146,3146,3144,3142,3140,3159,3229,2709,2399,1834,1063,561,575,563,522,512,512,513,512,514,521,545,581,590,574,310,304,294,268,257,0,0,0,0,0,0,0,0,0,0,0,0,0,0,0,0,0,0,0,0,0,0,0,0,0,256,256,256,0,8,563,580,590,563,12,1,0,0,0,0,0,0,0,0,0,0,0,1,1,1,1,1,0,0,0,0,0,0,0,0,0,0,0,0,0,0,0,0,0,0,0,0,0,0,0,0,0,0,0,0,0,0,0,0,0,0,0,0,0,0,0,0,0,0,0,0,0,0,0,0,0,0,0,0,0,0,0,0,0,0,0,0,0,0,0,0,0,0,0,0,0,0,0,0,0,0,0,0,0,0,0,0,0,0,0,0,0,0,0,0,0,0,0,0,0,0,0,0,0,0,0,0,0,0,0,0,0,0,0,0,0,0,0,0
0,0,0,0,0,0,0,0,0,0,0,0,0,0,0,0,0,0,0,0,0,0,0,0,0,0,0,0,0,0,0,0,0,0,0,0,0,0,0,0,0,0,0,0,0,0,0,0,0,0,0,0,0,0,0,0,0,0,0,0,0,0,0,0,0,0,0,0,0,0,0,0,0,0,0,0,0,0,0,0,0,0,0,0,0,0,0,0,0,0,0,0,0,0,0,0,0,0,0,0,0,0,0,0,0,0,0,0,0,0,0,0,0,1,268,575,1194,1738,2235,2738,2227,2228,2232,2225,2214,2173,2149,2397,2652,3182,3249,3245,3184,3162,3148,3138,3121,3114,3117,3118,3119,3119,3116,3116,3370,3370,3372,3377,3382,3385,3384,3386,3391,3393,3395,3397,3401,3403,3404,3406,3411,3416,3419,3421,3422,3422,3423,3421,3419,3412,3435,3433,3428,3428,3435,3440,3444,3446,3446,3446,3445,3447,3452,3457,3460,3462,3463,3462,3459,3459,3462,3467,3474,3477,3478,3480,3485,3485,3483,3483,3487,3489,3490,3491,3495,3496,3496,3495,3491,3488,3483,3488,3499,3507,3510,3512,3512,3512,3513,3514,3515,3516,3517,3517,3517,3516,3514,3514,3516,3518,3520,3522,3525,3270,3270,3260,2728,2727,3257,3522,3523,3523,3524,3526,3530,3531,3531,3531,3531,3531,3532,3533,3535,3537,3538,3538,3539,3539,3540,3540,3540,3540,3541,3541,3798,3538,2506,2236,1958,1955,2738,3263,3530,3537,3537,3539,3542,3544,3544,3544,3544,3545,3546,3547,3546,3289,3286,3542,3546,3545,3286,3284,3538,3539,3541,3542,3798,3792,3269,3267,3273,3277,3791,2733,1102,286,6,4,276,575,1428,1979,2505,2767,2767,2761,2748,2729,3268,3532,3792,3792,3278,3275,3527,3783,4554,4556,4044,3788,3788,3531,3274,3262,2728,2722,3244,3512,3525,3529,3524,3521,3521,3521,3521,3520,3519,3518,3515,3514,3514,3514,3514,3513,3511,3509,3507,3506,3505,3506,3508,3507,3503,3498,3492,3487,3484,3482,2712,1661,578,277,276,281,258,0,0,1,5,20,555,1093,1647,1392,589,289,5,0,0,0,0,276,1104,2154,3187,3442,3187,3183,3436,3434,3432,3430,3426,3423,3420,3417,3415,3412,3153,3151,3405,3404,3404,3402,3397,3391,3382,3376,3373,3371,3377,3374,3370,3372,3368,3373,3382,3386,3382,3374,3368,2591,1308,1053,1308,1843,2394,2668,3433,3431,2661,2424,2488,2503,2496,2494,2495,2493,2490,2489,2224,1975,1994,1702,1087,780.0001,263,6,9,7,1,0,0,0,0,0,1,6,19,22,15,12,10,6,1,0,0,0,0,0,0,0,0,0,0,0,0,0,0,0,0,0,0,0,0,0,0,0,0,0,0,0,0,0,0,2,15,278,278,15,4,1,0,0,0,0,0,0,0,0,0,0,0,0,0,0,0,0,0,0,0,0,0,0,0,0,0,0,0,0,0,0,0,0,0,0,0,0,0,0,0,0,0,0,0,0,0,0,0,0,0,0,0,0,0,0,0,0,0,0,0,0,0,0,0,0,0,0,0,0,0,0,0,0,0,0,0,0,0,0,0,0,0,0,0,0,0,0,0,0,0,0,0,0,0,0,0,0,0,0,0,0,0,0,0,0,0,0,0,0,0,0,0,0,0,0,0,0,0,0,0,0,0,0,0,0,0,0,0,0
0,0,0,0,0,0,0,0,0,0,0,0,0,0,0,0,0,0,0,0,0,0,0,0,0,0,0,0,0,0,0,0,0,0,0,0,0,0,0,0,0,0,0,0,0,0,0,0,0,0,0,0,0,0,0,0,0,0,0,0,0,0,0,0,0,0,0,0,0,0,0,0,0,0,0,0,0,0,0,0,0,0,0,0,0,0,0,0,0,0,0,0,0,0,0,0,0,0,0,0,0,0,0,0,0,0,0,0,0,0,0,0,0,0,3,304,1176,1733,2255,2518,2007,2011,2016,2012,1995,1980,1964,2214,2721,3252,3286,3286,3255,3232,3220,3177,3158,3149,3151,3152,3156,3149,3139,3135,3384,3380,3382,3379,3372,3371,3384,3384,3378,3375,3378,3382,3384,3387,3388,3391,3398,3400,3399,3398,3398,3398,3399,3398,3394,3396,3413,3415,3407,3394,3415,3415,3422,3424,3424,3424,3422,3423,3428,3433,3437,3438,3437,3436,3433,3433,3436,3440,3449,3453,3453,3456,3461,3461,3458,3458,3462,3464,3464,3465,3469,3470,3471,3470,3467,3461,3440,3461,3473,3481,3484,3485,3486,3486,3487,3488,3489,3490,3491,3491,3490,3489,3488,3489,3490,3493,3495,3498,3501,3503,3504,3504,3503,3501,3498,3498,3500,3503,3506,3509,3513,3514,3513,3513,3512,3513,3514,3516,3519,3521,3522,3522,3522,3522,3522,3522,3522,3522,3522,3522,3521,3524,3530,3528,3519,3516,3518,3519,3518,3518,3519,3521,3524,3526,3527,3527,3527,3528,3530,3530,3529,3527,3524,3524,3529,3532,3536,3537,3535,3532,3527,3524,3523,3524,3527,3528,3526,3524,3519,2723,1644,1078,288,275,271,566,1156,1942,2744,2747,2740,2730,2726,2732,3513,3775,4035,4035,3265,3263,3259,3770,4284,4542,3774,3519,3519,3517,3508,3504,3501,3501,3503,3504,3505,3503,3498,3496,3497,3497,3496,3495,3494,3492,3489,3487,3487,3487,3487,3487,3486,3485,3484,3483,3482,3482,3482,3481,3478,3474,3468,3464,3461,3204,2436,1389,559,276,270,268,260,259,0,0,1,269,568,1361,2417,1904,594,294,262,256,256,256,256,264,1066,1867,3160,3421,3161,3158,3412,3410,3407,3405,3401,3398,3395,3392,3390,3388,3129,3129,3386,3386,3386,3384,3377,3375,3375,3375,3382,3387,3386,3384,3382,3379,3374,3386,3409,3414,3413,3404,3387,2342,1037,525,1046,1339,1943,2483,3248,3244,2215,1969,1996,2006,2000,1998,1999,1995,1731,1719,1451,1194,1200,904.0001,553,257,0,0,0,0,0,0,0,0,0,0,0,0,0,0,0,0,0,0,0,0,0,0,0,0,0,0,0,0,0,0,0,0,0,0,0,0,0,0,0,0,0,0,0,0,0,0,0,0,0,1,3,4,2,1,1,1,0,0,0,0,0,0,0,0,0,0,0,0,0,0,0,0,0,0,0,0,0,0,0,0,0,0,0,0,0,0,0,0,0,0,0,0,0,0,0,0,0,0,0,0,0,0,0,0,0,0,0,0,0,0,0,0,0,0,0,0,0,0,0,0,0,0,0,0,0,0,0,0,0,0,0,0,0,0,0,0,0,0,0,0,0,0,0,0,0,0,0,0,0,0,0,0,0,0,0,0,0,0,0,0,0,0,0,0,0,0,0,0,0,0,0,0,0,0,0,0,0,0,0,0,0,0,0,0
0,0,0,0,0,0,0,0,0,0,0,0,0,0,0,0,0,0,0,0,0,0,0,0,0,0,0,0,0,0,0,0,0,0,0,0,0,0,0,0,0,0,0,0,0,0,0,0,0,0,0,0,0,0,0,0,0,0,0,0,0,0,0,0,0,0,0,0,0,0,0,0,0,0,0,0,0,0,0,0,0,0,0,0,0,0,0,0,0,0,0,0,0,0,0,0,0,0,0,0,0,0,0,0,0,0,0,0,0,0,0,0,0,0,1,277,835.0001,1413,1716,1744,1999,2002,2007,2009,2007,2004,2005,2259,2767,3282,3292,3292,3295,3285,3283,3277,3267,3262,3262,3262,3263,3255,3239,3194,3434,3426,3427,3410,3375,3376,3409,3412,3379,3363,3364,3367,3370,3372,3373,3375,3380,3380,3374,3370,3366,3364,3367,3368,3372,3382,3391,3394,3386,3387,3393,3393,3399,3402,3403,3403,3401,3402,3406,3411,3415,3415,3412,3412,3413,3413,3414,3419,3429,3433,3434,3435,3439,3439,3437,3436,3438,3439,3440,3442,3446,3448,3450,3449,3446,3443,3445,3448,3455,3459,3461,3462,3462,3464,3465,3466,3467,3468,3469,3469,3468,3467,3467,3467,3468,3469,3470,3473,3478,3481,3482,3482,3481,3480,3478,3478,3479,3480,3483,3485,3488,3490,3489,3489,3488,3488,3489,3491,3493,3495,3496,3496,3497,3497,3497,3497,3497,3497,3497,3497,3496,3498,3502,3502,3499,3498,3499,3499,3498,3498,3499,3501,3503,3505,3506,3506,3505,3505,3507,3507,3506,3504,3502,3502,3506,3509,3512,3512,3509,3506,3503,3500,3499,3500,3502,3503,3502,3500,3496,3229,2440,1910,1119,831.0001,555,824.0001,1398,2192,3239,3231,3202,3185,3221,3233,3237,3751,4265,4264,3750,3236,3233,3232,3743,3744,3491,3492,3492,3490,3486,3482,3479,3477,3477,3478,3480,3479,3477,3477,3479,3479,3479,3478,3476,3474,3470,3468,3467,3467,3468,3468,3467,3466,3465,3464,3464,3462,3460,3458,3457,3454,3447,3442,3439,3181,1899,1109,540,261,517,524,527,522,257,0,0,261,539,1086,1878,1619,571,279,259,256,256,256,256,258,1038,1823,3133,3397,3136,3132,3129,3126,3378,3375,3373,3370,3367,3364,3361,3361,3618,3624,3629,3631,3373,3370,3362,3368,3129,3148,3168,3180,3179,3176,3171,3163,3153,3171,3243,3263,3264,3245,3208,2111,1045,521,799.0001,1131,1714,2261,2513,2248,1464,1198,1186,1175,1168,1166,1168,1161,891.0001,593,576,564,310,298,262,0,0,0,0,0,0,0,0,0,0,0,0,0,0,0,0,0,0,0,0,0,0,0,0,0,0,0,0,0,0,0,0,0,0,0,0,0,0,0,0,0,0,0,0,0,0,0,0,0,0,0,0,1,1,1,0,0,0,0,0,0,0,0,0,0,0,0,0,0,0,0,0,0,0,0,0,0,0,0,0,0,0,0,0,0,0,0,0,0,0,0,0,0,0,0,0,0,0,0,0,0,0,0,0,0,0,0,0,0,0,0,0,0,0,0,0,0,0,0,0,0,0,0,0,0,0,0,0,0,0,0,0,0,0,0,0,0,0,0,0,0,0,0,0,0,0,0,0,0,0,0,0,0,0,0,0,0,0,0,0,0,0,0,0,0,0,0,0,0,0,0,0,0,0,0,0,0,0,0,0,0,0,0,0,0
0,0,0,0,0,0,0,0,0,0,0,0,0,0,0,0,0,0,0,0,0,0,0,0,0,0,0,0,0,0,0,0,0,0,0,0,0,0,0,0,0,0,0,0,0,0,0,0,0,0,0,0,0,0,0,0,0,0,0,0,0,0,0,0,0,0,0,0,0,0,0,0,0,0,0,0,0,0,0,0,0,0,0,0,0,0,0,0,0,0,0,0,0,0,0,0,0,0,0,0,0,0,0,0,0,0,0,0,0,0,0,0,0,0,0,260,534,1093,1170,1464,1726,1987,1992,1997,1999,2006,2011,2265,2780,3286,3281,3286,3294,3299,3303,3301,3299,3297,3296,3296,3297,3289,3279,3263,3502,3495,3498,3480,3415,3415,3486,3486,3419,3396,3395,3403,3407,3409,3410,3412,3416,3411,3399,3388,3378,3374,3376,3380,3385,3387,3384,3376,3382,3376,3374,3374,3378,3382,3384,3384,3382,3384,3386,3391,3395,3395,3392,3390,3388,3387,3387,3392,3402,3408,3410,3412,3414,3413,3412,3411,3413,3414,3415,3416,3420,3423,3425,3426,3426,3426,3428,3427,3430,3432,3432,3434,3440,3442,3442,3443,3445,3446,3447,3446,3445,3445,3446,3446,3447,3447,3448,3451,3458,3461,3461,3461,3461,3460,3460,3459,3460,3461,3461,3462,3466,3467,3468,3468,3466,3466,3467,3468,3470,3471,3473,3474,3475,3476,3476,3476,3475,3475,3475,3474,3474,3474,3477,3478,3478,3478,3477,3476,3476,3477,3478,3480,3482,3483,3485,3485,3484,3484,3484,3484,3483,3482,3481,3482,3485,3488,3490,3489,3484,3482,3479,3477,3477,3478,3479,3480,3478,3477,3474,3472,3215,2696,1916,1642,1349,1363,1642,2160,2703,3205,3173,3153,3194,3209,3212,3470,3728,3728,3470,3213,3210,3208,3206,3463,3466,3468,3468,3467,3463,3460,3457,3455,3454,3454,3456,3456,3455,3455,3457,3457,3457,3456,3454,3452,3448,3446,3445,3445,3446,3446,3445,3444,3443,3442,3442,3440,3437,3435,3434,3432,3426,3422,3419,3159,1876,1073,528,515,771.0001,1043,1054,799.0001,268,260,0,2,270,542,1071,1081,285,262,257,256,256,256,256,257,1026,1557,2602,3380,2614,2617,2623,2624,3387,3384,3378,3376,3375,3373,3370,3375,3642,3653,3664,3413,3154,2632,2610,2607,2367,2417,2449,2466,2459,2466,2467,2454,2422,2430,2475,2497,2499,2478,2442,1863,792.0001,516,536,834.0001,1176,1462,1715,1449,916.0001,619,600,585,580,579,581,575,303,287,268,262,12,10,2,1,1,0,0,0,0,0,0,0,0,0,0,0,0,0,0,0,0,0,0,0,0,0,0,0,0,0,0,0,0,0,0,0,0,0,0,0,0,0,0,0,0,0,0,0,0,0,0,0,0,0,0,0,0,0,1,1,0,0,0,0,0,0,0,0,0,0,0,0,0,0,0,0,0,0,0,0,0,0,0,0,0,0,0,0,0,0,0,0,0,0,0,0,0,0,0,0,0,0,0,0,0,0,0,0,0,0,0,0,0,0,0,0,0,0,0,0,0,0,0,0,0,0,0,0,0,0,0,0,0,0,0,0,0,0,0,0,0,0,0,0,0,0,0,0,0,0,0,0,0,0,0,0,0,0,0,0,0,0,0,0,0,0,0,0,0,0,0,0,0,0,0,0,0,0,0,0,0,0,0,0,0,0,0,0
0,0,0,0,0,0,0,0,0,0,0,0,0,0,0,0,0,0,0,0,0,0,0,0,0,0,0,0,0,0,0,0,0,0,0,0,0,0,0,0,0,0,0,0,0,0,0,0,0,0,0,0,0,0,0,0,0,0,0,0,0,0,0,0,0,0,0,0,0,0,0,0,0,0,0,0,0,0,0,0,0,0,0,0,0,0,0,0,0,0,0,0,0,0,0,0,0,0,0,0,0,0,0,0,0,0,0,0,0,0,0,0,0,0,0,257,258,544,875.0001,1171,1699,1967,1974,1977,1977,1979,1983,2242,2756,3268,3265,3265,3270,3274,3280,3284,3286,3287,3286,3287,3291,3291,3289,3285,3279,3283,3291,3284,3264,3265,3285,3284,3263,3252,3254,3257,3262,3265,3267,3268,3269,3261,3210,3218,3170,3163,3166,3171,3175,3161,3126,3115,3134,3134,3113,3104,3363,3368,3370,3371,3371,3371,3373,3376,3380,3382,3380,3373,3362,3356,3357,3362,3371,3378,3387,3392,3390,3388,3387,3387,3389,3390,3390,3392,3394,3396,3397,3400,3406,3409,3410,3411,3412,3412,3411,3413,3419,3421,3421,3422,3424,3425,3426,3425,3424,3424,3426,3428,3429,3430,3430,3433,3440,3442,3441,3441,3443,3444,3445,3444,3442,3442,3441,3441,3441,3442,3443,3444,3447,3448,3448,3449,3450,3451,3451,3452,3453,3453,3453,3453,3456,3456,3456,3455,3455,3455,3456,3457,3457,3455,3453,3453,3455,3457,3458,3459,3461,3463,3465,3466,3466,3465,3464,3463,3461,3461,3461,3463,3464,3465,3465,3463,3461,3459,3456,3456,3457,3458,3459,3458,3457,3456,3454,3454,3712,3711,3196,2674,2404,2401,2409,2416,2425,2416,2386,2368,2393,2394,2409,2413,2678,2679,2681,3188,3184,3182,3181,3182,3443,3445,3446,3445,3442,3440,3438,3436,3435,3435,3436,3436,3432,3431,3432,3433,3432,3431,3430,3428,3425,3424,3424,3424,3423,3422,3421,3420,3419,3418,3418,3417,3417,3415,3412,3409,3406,3404,3403,3143,1853,1328,529,524,1029,1041,1051,1059,554,287,6,2,2,261,524,524,260,257,256,256,256,256,256,257,771.0001,1297,2338,2610,2369,2132,2410,2672,2669,3173,3163,3159,3164,3165,3164,3174,3197,3246,2751,2503,1990,1709,1407,1352,1373,1358,1414,1432,1430,1443,1471,1452,1358,1334,1387,1376,1402,1368,1377,1068,268,257,258,271,296,314,314,310,298,30,15,8,6,6,12,268,263,260,257,261,283,289,280,275,15,7,1,0,0,0,0,0,0,0,0,0,0,0,0,0,0,0,0,0,0,0,0,0,0,0,0,0,0,0,0,0,0,0,0,0,0,0,0,0,0,0,0,0,0,0,0,0,0,0,0,0,0,0,2,2,1,0,0,0,0,0,0,0,0,0,0,0,0,0,0,0,0,0,0,0,0,0,0,0,0,0,0,0,0,0,0,0,0,0,0,0,0,0,0,0,0,0,0,0,0,0,0,0,0,0,0,0,0,0,0,0,0,0,0,0,0,0,0,0,0,0,0,0,0,0,0,0,0,0,0,0,0,0,0,0,0,0,0,0,0,0,0,0,0,0,0,0,0,0,0,0,0,0,0,0,0,0,0,0,0,0,0,0,0,0,0,0,0,0,0,0,0,0,0,0,0,0,0,0,0,0,0,0
0,0,0,0,0,0,0,0,0,0,0,0,0,0,0,0,0,0,0,0,0,0,0,0,0,0,0,0,0,0,0,0,0,0,0,0,0,0,0,0,0,0,0,0,0,0,0,0,0,0,0,0,0,0,0,0,0,0,0,0,0,0,0,0,0,0,0,0,0,0,0,0,0,0,0,0,0,0,0,0,0,0,0,0,0,0,0,0,0,0,0,0,0,0,0,0,0,0,0,0,0,0,0,0,0,0,0,0,0,0,0,0,0,0,0,0,256,266,563,614,1406,1932,1937,1943,1947,1951,1955,2215,2730,3244,3245,3245,3248,3251,3257,3263,3269,3273,3273,3276,3279,3282,3285,3284,3279,3284,3301,3303,3294,3293,3300,3299,3290,3286,3288,3291,3297,3300,3302,3304,3304,3296,3276,3259,3243,3237,3240,3242,3248,3231,3162,3151,3198,3176,3147,3138,3398,3403,3407,3408,3408,3408,3409,3411,3414,3415,3414,3401,3375,3363,3368,3373,3378,3378,3378,3375,3373,3371,3371,3371,3373,3373,3373,3374,3375,3376,3376,3379,3385,3387,3388,3389,3390,3389,3388,3390,3394,3396,3396,3397,3399,3400,3401,3400,3399,3400,3403,3405,3408,3410,3410,3412,3418,3419,3418,3418,3420,3422,3424,3425,3422,3420,3418,3418,3418,3419,3421,3423,3426,3427,3427,3427,3428,3428,3428,3429,3432,3433,3433,3433,3434,3434,3434,3434,3434,3435,3435,3435,3434,3432,3430,3430,3433,3435,3436,3438,3440,3442,3444,3445,3446,3445,3443,3441,3440,3440,3441,3443,3444,3445,3443,3441,3438,3435,3433,3433,3436,3437,3437,3436,3435,3434,3433,3434,3437,3438,3439,3179,3161,2648,2654,2401,1889,1622,1599,1580,1596,1600,1348,1342,1359,1876,2140,2649,3415,3669,3157,3159,3419,3422,3423,3423,3421,3419,3417,3415,3415,3415,3415,3413,3407,3405,3406,3405,3404,3403,3402,3401,3400,3399,3399,3399,3397,3396,3396,3395,3394,3393,3392,3393,3397,3397,3394,3390,3385,3385,3387,3131,2363,1840,1051,800.0001,1056,1060,1059,1071,607,312,14,0,0,0,256,256,256,256,256,256,256,256,256,257,513,1040,2095,2378,2142,1927,2210,2476,2735,3238,3220,3216,3233,3237,3229,3231,2735,2498,2263,1754,1242,952.0001,637,580,559,566,587,602,600,616,670,651,566,535,545,557,555,556,551,280,262,256,256,0,6,7,7,6,7,4,2,1,2,1,0,0,0,0,0,260,300,308,306,285,42,10,2,0,0,0,0,0,0,0,0,0,0,0,0,0,0,0,0,0,0,0,0,0,0,0,0,0,0,0,0,0,0,0,0,0,0,0,0,0,0,1,3,4,4,4,0,1,0,0,0,0,0,4,28,28,5,0,0,0,0,0,0,0,0,0,0,0,0,0,0,0,0,0,0,0,0,0,0,0,0,0,0,0,0,0,0,0,0,0,0,0,0,0,0,0,0,0,0,0,0,0,0,0,0,0,0,0,0,0,0,0,0,0,0,0,0,0,0,0,0,0,0,0,0,0,0,0,0,0,0,0,0,0,0,0,0,0,0,0,0,0,0,0,0,0,0,0,0,0,0,0,0,0,0,0,0,0,0,0,0,0,0,0,0,0,0,0,0,0,0,0,0,0,0,0,0,0,0,0,0,0,0,0
0,0,0,0,0,0,0,0,0,0,0,0,0,0,0,0,0,0,0,0,0,0,0,0,0,0,0,0,0,0,0,0,0,0,0,0,0,0,0,0,0,0,0,0,0,0,0,0,0,0,0,0,0,0,0,0,0,0,0,0,0,0,0,0,0,0,0,0,0,0,0,0,0,0,0,0,0,0,0,0,0,0,0,0,0,0,0,0,0,0,0,0,0,0,0,0,0,0,0,0,0,0,0,0,0,0,0,0,0,0,0,0,0,0,0,0,256,258,271,548,1354,1883,1889,1898,1917,1928,1929,2187,2703,3220,3226,3229,3231,3233,3235,3240,3246,3253,3258,3260,3261,3261,3261,3255,3242,3230,3270,3284,3278,3277,3277,3276,3276,3276,3278,3282,3288,3291,3294,3295,3295,3294,3292,3291,3287,3285,3283,3284,3287,3279,3260,3256,3267,3267,3256,3247,3511,3515,3519,3520,3520,3520,3520,3521,3523,3524,3524,3503,3437,3416,3419,3427,3426,3412,3377,3362,3361,3361,3361,3361,3361,3361,3360,3360,3360,3359,3359,3358,3358,3357,3356,3357,3359,3359,3359,3360,3363,3364,3366,3367,3369,3370,3370,3370,3369,3371,3374,3378,3384,3386,3386,3388,3392,3392,3390,3390,3393,3396,3399,3399,3397,3395,3392,3391,3391,3392,3394,3397,3401,3403,3403,3403,3402,3402,3402,3404,3408,3410,3410,3410,3411,3411,3411,3411,3411,3412,3414,3414,3411,3408,3407,3408,3411,3413,3414,3415,3418,3419,3421,3422,3425,3425,3422,3420,3419,3419,3420,3421,3422,3422,3420,3417,3413,3411,3409,3410,3413,3414,3413,3412,3411,3411,3410,3155,2645,2645,2646,3155,3149,3145,3147,2375,1087,816.0001,803.0001,788.0001,529,528,528,531,539,1060,1850,2624,3644,4155,3899,3645,3394,3397,3399,3399,3398,3396,3394,3393,3394,3394,3393,3389,3379,3375,3374,3373,3370,3369,3369,3370,3370,3371,3371,3371,3367,3366,3366,3364,3363,3362,3361,3366,3375,3379,3378,3373,3361,3361,3371,3382,3139,2372,1334,1082,1104,1106,1084,1086,625,588,277,0,0,0,0,0,256,256,256,256,256,256,256,256,513,1055,1905,2458,1968,1976,1978,2243,2765,3266,3202,3225,3263,3270,3249,2725,2460,1950,1458,1204,674,385,308,276,7,7,10,12,9,21,39,34,7,1,5,8,12,14,9,264,260,258,2,6,15,20,8,13,30,40,41,42,43,32,3,0,0,0,0,2,270,278,283,298,15,9,1,0,0,0,0,0,0,0,0,0,0,0,0,0,0,0,0,0,0,0,0,0,0,0,0,0,0,0,0,0,0,0,0,0,0,0,0,0,0,2,23,38,31,23,4,0,0,0,0,0,1,23,90,91,21,0,0,0,0,0,0,0,0,0,0,0,0,0,0,0,0,0,0,0,0,0,0,0,0,0,0,0,0,0,0,0,0,0,0,0,0,0,0,0,0,0,0,0,0,0,0,0,0,0,0,0,0,0,0,0,0,0,0,0,0,0,0,0,0,0,0,0,0,0,0,0,0,0,0,0,0,0,0,0,0,0,0,0,0,0,0,0,0,0,0,0,0,0,0,0,0,0,0,0,0,0,0,0,0,0,0,0,0,0,0,0,0,0,0,0,0,0,0,0,0,0,0,0,0,0,0,0
0,0,0,0,0,0,0,0,0,0,0,0,0,0,0,0,0,0,0,0,0,0,0,0,0,0,0,0,0,0,0,0,0,0,0,0,0,0,0,0,0,0,0,0,0,0,0,0,0,0,0,0,0,0,0,0,0,0,0,0,0,0,0,0,0,0,0,0,0,0,0,0,0,0,0,0,0,0,0,0,0,0,0,0,0,0,0,0,0,0,0,0,0,0,0,0,0,0,0,0,0,0,0,0,0,0,0,0,0,0,0,0,0,0,0,0,0,0,1,262,795.0001,1063,1066,1080,1108,1119,1122,1380,1639,1903,1914,1921,1924,1923,1919,2181,2709,2720,2726,2728,2724,2723,2725,2720,2712,2711,2726,2736,2740,2741,2737,2738,3255,3258,3259,3263,3270,3274,3276,3278,3279,3287,3289,3290,3293,3292,3290,3290,2785,2781,2776,2775,2779,2778,2774,2774,3546,3551,3556,3558,3558,3557,3557,3558,3559,3559,3560,3543,3509,3494,3499,3499,3504,3483,3417,3400,3398,3398,3399,3399,3399,3399,3398,3399,3399,3396,3389,3380,3372,3368,3367,3367,3371,3372,3372,3372,3373,3374,3374,3375,3377,3378,3378,3378,3378,3633,3631,3628,3625,3624,3624,3373,3382,3386,3385,3385,3387,3386,3382,3124,3121,3119,3117,3116,3115,3116,3118,3120,3123,3123,3122,3123,3126,3126,3123,3123,3126,3129,3130,3130,3132,3131,3130,3129,3130,3131,3134,3135,3133,3130,3126,3126,3130,3132,3134,3136,3139,3142,3145,3146,3145,3144,3141,3140,3139,3138,3139,3140,3141,3140,3139,3136,3132,3130,3129,3386,3389,3392,3393,3393,3391,3390,3392,3137,2626,2627,2629,2626,2618,2612,2612,2094,798.0001,270,263,260,257,256,256,257,258,521,1575,2610,3880,4132,3876,3624,3377,3382,3382,3382,3382,3379,3378,3378,3382,3382,3379,3382,3385,3386,3384,3382,3379,3122,3122,3122,3123,3126,3128,3126,3121,3119,3119,3118,3117,3116,3115,3382,3405,3415,3413,3401,3378,3378,3400,3418,3178,2178,1644,1366,1433,1177,1142,1108,636,336,279,0,0,0,0,0,0,0,0,0,0,0,0,256,257,533,1103,1419,1183,1188,1177,1157,1708,1957,1898,1920,1957,1959,2198,1898,1370,1111,890.0001,616,338,314,277,259,0,0,0,0,0,2,7,9,6,6,9,16,25,25,27,279,270,268,14,17,24,40,16,20,312,325,330,335,336,321,269,257,0,0,0,1,260,265,272,271,7,2,0,0,0,0,0,0,0,0,0,0,0,0,0,0,0,0,0,0,0,0,0,0,0,0,0,0,0,0,0,0,0,0,0,0,0,0,2,5,265,284,321,85,81,38,7,0,0,0,0,1,1,22,90,88,21,0,0,0,0,0,0,0,0,0,0,0,0,0,0,0,0,0,0,0,0,0,0,0,0,0,0,0,0,0,0,0,0,0,0,0,0,0,0,0,0,0,0,0,0,0,0,0,0,0,0,0,0,0,0,0,0,0,0,0,0,0,0,0,0,0,0,0,0,0,0,0,0,0,0,0,0,0,0,0,0,0,0,0,0,0,0,0,0,0,0,0,0,0,0,0,0,0,0,0,0,0,0,0,0,0,0,0,0,0,0,0,0,0,0,0,0,0,0,0,0,0,0,0,0,0,0,0
0,0,0,0,0,0,0,0,0,0,0,0,0,0,0,0,0,0,0,0,0,0,0,0,0,0,0,0,0,0,0,0,0,0,0,0,0,0,0,0,0,0,0,0,0,0,0,0,0,0,0,0,0,0,0,0,0,0,0,0,0,0,0,0,0,0,0,0,0,0,0,0,0,0,0,0,0,0,0,0,0,0,0,0,0,0,0,0,0,0,0,0,0,0,0,0,0,0,0,0,0,0,0,0,0,0,0,0,0,0,0,0,0,0,0,0,0,0,0,0,258,260,262,269,279,285,287,288,288,558,583,597,601,600,585,843.0001,1912,2443,2449,2448,2436,2436,2445,2449,2703,2698,2695,2694,2708,2713,2711,3225,3489,3492,3492,3496,3503,3507,3509,3513,3513,3520,3524,3526,3526,3521,3517,3518,3267,2759,2760,2761,2761,2760,2760,3274,2767,3286,3293,3295,3294,3293,3294,3294,3295,3294,3293,3290,3285,3284,3287,3289,3548,3539,3519,3508,3507,3507,3508,3508,3510,3511,3512,3515,3520,3513,3489,3443,3680,3671,3672,3674,3677,3678,3677,3677,3676,3675,3674,3675,3677,3678,3677,3933,3935,4185,4173,4155,4134,4123,4124,3881,3902,3659,3655,3656,3654,3648,3373,3363,3361,3360,3360,3360,3358,3358,3360,3359,3359,3355,3353,3358,3368,3370,3361,3357,3356,3357,3359,3361,3362,3360,3356,3355,3357,3358,3360,3362,3364,3362,3353,3351,3356,3358,3362,3367,3373,3374,3384,3382,3373,3369,3368,3366,3366,3364,3364,3364,3366,3366,3366,3363,3359,3357,3357,3359,3617,3624,3631,3635,3625,3626,3632,3635,3380,3382,3387,2614,2084,1819,1302,1039,260,1,1,0,0,0,256,256,257,521,1572,3113,3606,3854,3342,3094,3371,3375,3376,3372,3371,3370,3370,3372,3634,3635,3632,3648,3680,3694,3684,3682,3427,3424,3426,3424,3423,3428,3432,3434,3429,3425,3425,3422,3421,3420,3420,3442,3768,3785,3779,3756,3689,3690,3758,3266,2244,1713,1159,1142,1211,1215,1183,880.0001,374,323,271,0,0,0,0,0,0,0,0,0,1,0,0,0,256,258,277,294,51,54,46,46,310,308,296,295,303,302,546,539,271,273,287,288,277,269,264,260,257,260,275,286,292,298,300,560,559,559,557,582,601,608,608,599,323,297,296,308,289,299,294,280,305,301,325,333,335,318,276,257,0,0,0,0,1,2,3,2,1,0,0,0,0,0,0,0,0,0,0,0,0,0,0,0,0,0,0,0,0,0,0,0,0,0,0,0,0,0,0,0,0,0,0,0,0,2,16,286,558,589,648,393,359,304,268,0,0,0,0,0,0,4,21,21,4,0,0,0,0,0,0,0,0,0,0,0,0,0,0,0,0,0,0,0,0,0,0,0,0,0,0,0,0,0,0,0,0,0,0,0,0,0,0,0,0,0,0,0,0,0,0,0,0,0,0,0,0,0,0,0,0,0,0,0,0,0,0,0,0,0,0,0,0,0,0,0,0,0,0,0,0,0,0,0,0,0,0,0,0,0,0,0,0,0,0,0,0,0,0,0,0,0,0,0,0,0,0,0,0,0,0,0,0,0,0,0,0,0,0,0,0,0,0,0,0,0,0,0,0,0,0,0
0,0,0,0,0,0,0,0,0,0,0,0,0,0,0,0,0,0,0,0,0,0,0,0,0,0,0,0,0,0,0,0,0,0,0,0,0,0,0,0,0,0,0,0,0,0,0,0,0,0,0,0,0,0,0,0,0,0,0,0,0,0,0,0,0,0,0,0,0,0,0,0,0,0,0,0,0,0,0,0,0,0,0,0,0,0,0,0,0,0,0,0,0,0,0,0,0,0,0,0,0,0,0,0,0,0,0,0,0,0,0,0,0,0,0,0,0,0,0,0,0,0,0,0,0,1,2,2,2,8,24,33,38,38,24,287,848.0001,1124,1130,1127,1115,1102,1132,1136,1652,1642,1626,1610,1635,1643,1643,1648,1917,2175,2170,2171,2180,2187,2189,2193,2460,2465,2462,2464,2466,2458,2447,2448,2200,2207,2213,2217,2223,2226,2227,2231,2493,2756,2761,2763,2763,2763,2764,2765,2765,2766,2767,2770,2775,2778,2781,2783,2786,2784,2779,2776,2774,2773,2773,2774,2778,2779,2778,2775,2773,2764,2760,2745,3499,3491,3491,3493,3496,3497,3496,3496,3495,3494,3492,3493,3496,3497,3495,3751,4011,4003,3979,3940,3918,3908,3909,3920,3686,3466,3441,3466,3465,3430,3154,3144,2631,2631,2632,2632,2630,2631,2632,2625,3119,3111,3108,3120,3143,3147,3135,3121,3114,3111,3114,3116,3116,3114,3110,3108,3112,3113,3115,3120,3132,3130,3112,3111,3111,3114,3118,3126,3133,3146,3159,3152,3131,3120,3122,3122,3119,3118,3117,3118,3120,3121,3120,3119,3117,3114,3114,3116,3632,3641,3660,3665,3651,3654,3669,3669,3155,2637,2375,1843,1305,1033,774.0001,514,0,0,0,0,0,0,0,0,0,264,1067,2092,2319,2307,1540,1553,2348,2624,2631,2636,2635,2635,2635,2632,3138,3134,3130,3148,3214,3229,3231,2718,2458,2461,2469,2472,2471,2467,2466,2465,2468,2467,2461,2464,2466,2468,2468,2482,2767,2774,2761,2738,2706,2702,2738,1981,1206,930.0001,887.0001,867.0001,929.0001,933.0001,909.0001,629,349,302,268,257,3,6,5,9,5,3,1,0,0,1,2,2,261,263,8,8,8,4,1,0,1,2,3,5,8,7,258,256,256,256,257,257,256,258,275,283,533,535,555,585,596,601,598,596,592,591,577,596,611,616,614,598,319,297,299,306,284,276,273,273,278,283,298,302,304,292,265,256,0,0,0,0,0,0,0,0,0,0,0,0,0,1,0,0,0,0,0,0,0,0,0,0,0,0,0,0,0,1,1,0,0,0,0,0,0,0,0,0,0,256,256,256,256,259,276,310,591,878.0001,911.0001,651,351,301,268,0,0,0,0,0,0,0,0,0,0,0,0,0,0,0,0,0,0,0,0,0,0,0,0,0,0,0,0,0,0,0,0,0,0,0,0,0,0,0,0,0,0,0,0,0,0,0,0,0,0,0,0,0,0,0,0,0,0,0,0,0,0,0,0,0,0,0,0,0,0,0,0,0,0,0,0,0,0,0,0,0,0,0,0,0,0,0,0,0,0,0,0,0,0,0,0,0,0,0,0,0,0,0,0,0,0,0,0,0,0,0,0,0,0,0,0,0,0,0,0,0,0,0,0,0,0,0,0,0,0,0,0,0,0,0,0,0
0,0,0,0,0,0,0,0,0,0,0,0,0,0,0,0,0,0,0,0,0,0,0,0,0,0,0,0,0,0,0,0,0,0,0,0,0,0,0,0,0,0,0,0,0,0,0,0,0,0,0,0,0,0,0,0,0,0,0,0,0,0,0,0,0,0,0,0,0,0,0,0,0,0,0,0,0,0,0,0,0,0,0,0,0,0,0,0,0,0,0,0,0,0,0,0,0,0,0,0,0,0,0,0,0,0,0,0,0,0,0,0,0,0,0,0,0,0,0,0,0,0,0,0,0,0,0,0,0,1,2,5,4,5,2,6,277,287,289,289,284,284,300,315,308,310,286,279,285,291,294,562,589,586,562,555,585,577,578,860.0001,1142,1405,1396,1386,1384,1377,1350,1368,1382,1646,1649,1661,1682,1691,1691,1695,1702,1963,1963,1964,1966,1967,1970,1971,2227,2231,2238,2239,2235,2234,2237,2239,2497,2501,2507,2509,2508,2506,2503,2504,2511,2512,2509,2493,2464,2464,2500,2770,2773,3284,3280,3280,3281,3282,3283,3283,3284,3283,3282,3283,3286,3287,3286,3286,3548,3796,3786,3781,3772,3768,3769,3519,3275,3277,3281,3277,3532,3525,3514,3253,2744,2489,2490,2490,2490,2490,2491,2729,3180,3413,3413,3435,3502,3508,3489,3445,3427,3419,3420,3420,3419,3418,3416,3418,3421,3423,3421,3430,3448,3475,3425,3414,3414,3416,3419,3430,3449,3496,3521,3513,3442,3418,3416,3418,3416,3415,3414,3416,3420,3422,3422,3422,3422,3422,3422,3422,3679,3955,4021,4028,4010,3982,4034,3529,1985,1451,1157,1119,536,514,258,257,0,0,0,0,0,0,0,0,0,270,599,1111,785.0001,512,257,277,1370,2174,2211,2226,2226,2226,2225,2210,2180,2164,2160,2168,2186,2206,2217,1960,1689,1697,1728,1742,1739,1725,1695,1696,1725,1732,1718,1716,1733,1740,1738,1470,1447,1429,1383,1394,1364,1388,1393,1111,582,305,289,289,306,313,300,290,23,13,260,268,291,303,303,300,289,20,6,1,0,1,8,276,291,298,298,33,13,2,0,0,0,0,1,9,286,294,539,281,277,270,260,258,261,279,325,333,564,837.0001,848.0001,863.0001,878.0001,877.0001,866.0001,599,594,329,326,331,332,327,300,286,15,13,27,32,7,2,1,1,2,6,6,8,10,6,1,0,0,0,0,0,0,0,0,0,0,0,0,0,0,0,0,0,0,0,0,0,0,0,0,0,0,0,0,0,0,1,1,0,0,0,0,0,0,0,0,0,0,256,256,256,256,256,265,281,561,851.0001,612,601,295,266,257,0,0,0,0,0,0,0,0,0,0,0,0,0,0,0,0,0,0,0,0,0,0,0,0,0,0,0,0,0,0,0,0,0,0,0,0,0,0,0,0,0,0,0,0,0,0,0,0,0,0,0,0,0,0,0,0,0,0,0,0,0,0,0,0,0,0,0,0,0,0,0,0,0,0,0,0,0,0,0,0,0,0,0,0,0,0,0,0,0,0,0,0,0,0,0,0,0,0,0,0,0,0,0,0,0,0,0,0,0,0,0,0,0,0,0,0,0,0,0,0,0,0,0,0,0,0,0,0,0,0,0,0,0,0,0,0,0
0,0,0,0,0,0,0,0,0,0,0,0,0,0,0,0,0,0,0,0,0,0,0,0,0,0,0,0,0,0,0,0,0,0,0,0,0,0,0,0,0,0,0,0,0,0,0,0,0,0,0,0,0,0,0,0,0,0,0,0,0,0,0,0,0,0,0,0,0,0,0,0,0,0,0,0,0,0,0,0,0,0,0,0,0,0,0,0,0,0,0,0,0,0,0,0,0,0,0,0,0,0,0,0,0,0,0,0,0,0,0,0,0,0,0,0,0,0,0,0,0,0,0,0,0,0,0,0,0,0,0,0,0,0,0,0,0,0,0,0,0,2,10,16,16,12,1,1,1,2,2,13,286,286,265,261,273,279,279,291,569,592,566,558,556,553,543,799.0001,809.0001,815.0001,817.0001,830.0001,867.0001,881.0001,881.0001,1141,1149,1151,1147,1146,1148,1150,1153,1154,1410,1418,1432,1432,1419,1412,1415,1417,1675,1684,1700,1708,1707,1704,1697,1696,1702,1701,1694,1674,1623,1626,1693,1981,2510,2774,2773,2774,2776,2777,2776,2779,2780,2780,2780,2781,2781,2782,2781,2782,3297,3554,3552,3553,3549,3547,3547,3293,2787,2788,2794,3304,3553,3809,3805,3549,2785,2531,2531,2530,2532,2532,2532,2771,3251,3487,3491,3505,3544,3552,3533,3520,3504,3496,3498,3498,3496,3494,3491,3488,3486,3488,3493,3504,3520,3520,3502,3492,3493,3495,3498,3508,3525,3538,3555,3547,3514,3494,3494,3490,3489,3488,3488,3489,3494,3497,3498,3497,3496,3496,3497,3498,3752,3772,3802,3807,3787,3782,3797,2770,1211,669,604,310,271,256,256,0,0,0,0,0,1,1,0,0,0,269,306,305,264,0,0,12,563,1113,1176,1194,1194,1193,1191,1174,858.0001,839.0001,836.0001,839.0001,849.0001,864.0001,877.0001,899.0001,607,614,672,686,685,670,615,615,670,673,639,657,680,687,685,665,606,320,303,301,306,303,301,290,271,260,258,259,266,269,275,269,262,269,279,299,594,604,855.0001,593,323,310,295,280,269,273,287,321,596,604,346,334,297,22,9,3,1,2,8,281,322,586,563,572,302,286,261,258,281,283,327,321,569,837.0001,844.0001,838.0001,864.0001,870.0001,849.0001,570,304,300,294,294,292,287,268,257,1,2,7,8,1,0,0,0,1,0,0,0,0,0,0,0,0,0,0,0,0,0,0,0,0,0,0,0,0,0,0,0,0,0,1,3,7,10,8,6,3,2,0,0,0,0,0,0,0,0,0,0,0,0,0,0,0,256,256,256,256,256,257,268,542,552,555,292,268,1,0,0,0,0,0,0,0,0,0,0,0,0,0,0,0,0,0,0,0,0,0,0,0,0,0,0,0,0,0,0,0,0,0,0,0,0,0,0,0,0,0,0,0,0,0,0,0,0,0,0,0,0,0,0,0,0,0,0,0,0,0,0,0,0,0,0,0,0,0,0,0,0,0,0,0,0,0,0,0,0,0,0,0,0,0,0,0,0,0,0,0,0,0,0,0,0,0,0,0,0,0,0,0,0,0,0,0,0,0,0,0,0,0,0,0,0,0,0,0,0,0,0,0,0,0,0,0,0,0,0,0,0,0,0,0,0,0,0
0,0,0,0,0,0,0,0,0,0,0,0,0,0,0,0,0,0,0,0,0,0,0,0,0,0,0,0,0,0,0,0,0,0,0,0,0,0,0,0,0,0,0,0,0,0,0,0,0,0,0,0,0,0,0,0,0,0,0,0,0,0,0,0,0,0,0,0,0,0,0,0,0,0,0,0,0,0,0,0,0,0,0,0,0,0,0,0,0,0,0,0,0,0,0,0,0,0,0,0,0,0,0,0,0,0,0,0,0,0,0,0,0,0,0,0,0,0,0,0,0,0,0,0,0,0,0,0,0,0,0,0,1,1,0,0,0,0,0,0,0,0,1,2,2,1,0,0,0,0,1,2,2,2,0,0,1,2,2,5,270,271,264,261,260,260,260,260,260,260,260,266,283,291,292,297,319,307,298,294,294,295,296,297,294,570,605,609,568,554,555,556,556,576,611,629,626,621,594,606,605,583,572,556,536,544,574,1140,1682,2215,2221,2228,2235,2233,2234,2233,2234,2241,2238,2240,2240,2240,2239,2242,2500,2766,2774,2773,2767,2764,2763,2503,2252,2258,2523,2779,3287,3541,3796,3542,2779,2526,2526,2525,2525,2524,2528,2518,3282,3280,3282,3287,3296,3298,3295,3290,2777,2777,2778,2779,2780,2775,2766,2753,2741,2741,2761,2775,2782,2777,2769,2767,2771,2774,2774,2778,2785,2787,2783,2779,2775,2775,2774,2774,2771,2770,2770,2771,2775,2778,2779,2776,2767,2764,2766,2766,2509,2513,2522,2514,2493,2477,2469,1934,589,303,281,8,1,0,0,0,0,0,1,3,4,4,4,2,0,257,258,258,0,0,0,0,3,278,301,318,317,315,312,299,22,10,9,10,10,16,28,28,271,276,298,310,317,310,292,290,305,307,296,296,304,310,307,41,22,8,10,12,13,13,10,8,4,258,258,265,285,295,297,292,283,547,592,612,884.0001,1142,1129,1117,866.0001,608,602,590,563,559,575,862.0001,1136,1143,1141,877.0001,605,335,300,288,20,16,31,318,343,606,597,585,304,283,261,257,260,265,287,304,292,559,539,541,568,552,537,271,13,4,2,1,1,1,0,0,0,0,1,2,0,0,0,0,0,0,0,0,0,0,0,0,0,0,0,0,0,0,0,0,0,0,0,0,0,0,1,1,2,4,3,17,46,64,57,304,290,277,261,257,0,0,0,0,0,0,0,0,0,0,0,0,0,256,256,256,256,256,256,257,260,260,260,258,1,1,0,0,0,0,0,0,0,0,0,0,0,0,0,0,0,0,0,0,0,0,0,0,0,0,0,0,0,0,0,0,0,0,0,0,0,0,0,0,0,0,0,0,0,0,0,0,0,0,0,0,0,0,0,0,0,0,0,0,0,0,0,0,0,0,0,0,0,0,0,0,0,0,0,0,0,0,0,0,0,0,0,0,0,0,0,0,0,0,0,0,0,0,0,0,0,0,0,0,0,0,0,0,0,0,0,0,0,0,0,0,0,0,0,0,0,0,0,0,0,0,0,0,0,0,0,0,0,0,0,0,0,0,0,0,0,0,0,0
0,0,0,0,0,0,0,0,0,0,0,0,0,0,0,0,0,0,0,0,0,0,0,0,0,0,0,0,0,0,0,0,0,0,0,0,0,0,0,0,0,0,0,0,0,0,0,0,0,0,0,0,0,0,0,0,0,0,0,0,0,0,0,0,0,0,0,0,0,0,0,0,0,0,0,0,0,0,0,0,0,0,0,0,0,0,0,0,0,0,0,0,0,0,0,0,0,0,0,0,0,0,0,0,0,0,0,0,0,0,0,0,0,0,0,0,0,0,0,0,0,0,0,0,0,0,0,0,0,0,0,0,1,1,0,0,0,0,0,0,0,0,0,0,0,0,0,0,0,0,0,0,0,0,0,0,0,0,0,0,0,0,0,0,0,0,0,0,0,0,0,0,0,1,2,4,268,270,264,262,263,262,260,258,258,12,39,39,13,2,3,4,259,271,298,308,310,299,290,284,286,278,265,260,256,257,272,298,1096,1389,1400,1409,1418,1422,1418,1420,1425,1428,1427,1422,1421,1418,1417,1422,1689,1957,1970,1965,1954,1943,1942,1683,1177,1185,1462,1723,1975,2488,2750,2754,2242,2244,2248,2250,2245,2242,2249,2249,2247,2247,2248,2247,2249,2246,2251,1998,1744,1489,1490,1491,1494,1483,1464,1444,1411,1431,1461,1473,1479,1476,1469,1470,1480,1485,1484,1485,1487,1479,1457,1457,1477,1485,1484,1483,1480,1479,1479,1480,1484,1486,1487,1479,1463,1455,1456,1456,1198,1196,1193,1183,1142,1148,1106,827.0001,279,258,0,0,0,0,0,1,3,10,21,28,30,31,30,281,270,261,257,256,2,4,4,3,1,2,12,13,9,10,10,8,1,0,0,0,0,0,1,1,0,0,2,12,28,30,22,17,19,15,6,4,10,13,10,7,1,2,20,24,23,22,23,23,280,281,281,291,320,335,337,589,822.0001,1104,873.0001,1145,1149,1145,1374,1129,1137,1139,1136,1125,1104,1101,1113,1132,1403,1409,1405,1143,877.0001,601,575,301,42,24,31,60,334,340,585,306,288,271,259,256,258,258,263,273,271,272,257,258,265,265,258,256,0,0,1,2,1,1,0,0,0,0,1,1,0,0,0,0,0,0,0,0,0,0,0,0,0,0,0,0,0,0,0,0,0,1,0,0,0,3,19,36,301,303,300,313,358,364,369,617,855.0001,826.0001,552,281,263,1,1,0,0,0,0,0,0,0,0,0,0,256,256,256,256,256,256,256,256,256,256,0,0,1,1,0,0,0,0,0,0,0,0,0,0,0,0,0,0,0,0,0,0,0,0,0,0,0,0,0,0,0,0,0,0,0,0,0,0,0,0,0,0,0,0,0,0,0,0,0,0,0,0,0,0,0,0,0,0,0,0,0,0,0,0,0,0,0,0,0,0,0,0,0,0,0,0,0,0,0,0,0,0,0,0,0,0,0,0,0,0,0,0,0,0,0,0,0,0,0,0,0,0,0,0,0,0,0,0,0,0,0,0,0,0,0,0,0,0,0,0,0,0,0,0,0,0,0,0,0,0,0,0,0,0,0,0,0,0,0,0,0
0,0,0,0,0,0,0,0,0,0,0,0,0,0,0,0,0,0,0,0,0,0,0,0,0,0,0,0,0,0,0,0,0,0,0,0,0,0,0,0,0,0,0,0,0,0,0,0,0,0,0,0,0,0,0,0,0,0,0,0,0,0,0,0,0,0,0,0,0,0,0,0,0,0,0,0,0,0,0,0,0,0,0,0,0,0,0,0,0,0,0,0,0,0,0,0,0,0,0,0,0,0,0,0,0,0,0,0,0,0,0,0,0,0,0,0,0,0,0,0,0,0,0,0,0,0,0,0,0,0,0,0,0,0,0,0,0,0,0,0,0,0,0,0,0,0,0,0,1,1,0,0,0,0,0,0,0,0,0,0,0,0,0,0,0,0,0,0,0,0,0,0,0,0,0,257,257,260,268,273,280,279,270,262,1,2,7,8,3,2,2,2,257,260,269,269,259,259,257,257,257,259,257,258,256,256,257,261,272,279,294,303,313,332,305,305,321,344,324,335,307,301,299,562,835.0001,872.0001,886.0001,879.0001,832.0001,816.0001,817.0001,562,305,319,627,896.0001,1154,1675,2206,2210,2201,2208,2213,2216,2206,2210,2217,1956,1680,1413,1414,1414,1412,1420,1430,1175,909.0001,650,651,653,652,637,588,566,554,559,588,629,641,639,606,623,640,648,647,648,652,638,582,584,632,651,650,646,644,643,642,643,648,650,650,635,586,572,571,570,566,308,307,302,291,279,270,266,259,257,257,1,2,2,9,280,284,556,582,595,597,598,599,590,559,546,543,290,294,295,295,292,290,284,275,270,263,265,281,289,290,289,286,284,284,286,288,289,288,287,287,298,333,342,340,334,319,306,289,287,291,291,288,287,545,558,588,596,593,593,594,594,592,846.0001,844.0001,851.0001,863.0001,873.0001,875.0001,1130,1381,1639,1393,1138,1139,1137,1126,1126,1132,1135,1135,1124,1105,1103,1122,1388,1655,1658,1654,1389,1116,1100,806.0001,532,12,8,9,17,19,25,271,266,261,258,256,256,257,257,257,1,2,1,0,0,0,1,0,0,0,3,30,39,36,21,0,0,2,6,6,3,0,0,0,0,0,0,0,0,0,0,0,0,0,0,0,0,0,0,0,0,0,0,0,0,1,19,64,369,646,907.0001,899.0001,897.0001,899.0001,901.0001,909.0001,1163,1406,1399,1132,602,307,284,7,2,0,0,0,0,0,0,0,0,0,256,256,256,256,256,256,256,256,256,256,0,0,1,0,0,0,0,0,0,0,0,0,0,0,0,0,0,0,0,0,0,0,0,0,0,0,0,0,0,0,0,0,0,0,0,0,0,0,0,0,0,0,0,0,0,0,0,0,0,0,0,0,0,0,0,0,0,0,0,0,0,0,0,0,0,0,0,0,0,0,0,0,0,0,0,0,0,0,0,0,0,0,0,0,0,0,0,0,0,0,0,0,0,0,0,0,0,0,0,0,0,0,0,0,0,0,0,0,0,0,0,0,0,0,0,0,0,0,0,0,0,0,0,0,0,0,0,0,0,0,0,0,0,0,0,0,0,0,0,0,0
0,0,0,0,0,0,0,0,0,0,0,0,0,0,0,0,0,0,0,0,0,0,0,0,0,0,0,0,0,0,0,0,0,0,0,0,0,0,0,0,0,0,0,0,0,0,0,0,0,0,0,0,0,0,0,0,0,0,0,0,0,0,0,0,0,0,0,0,0,0,0,0,0,0,0,0,0,0,0,0,0,0,0,0,0,0,0,0,0,0,0,0,0,0,0,0,0,0,0,0,0,0,0,0,0,0,0,0,0,0,0,0,0,0,0,0,0,0,0,0,0,0,0,0,0,1,1,2,2,3,4,4,3,260,268,266,259,1,1,1,0,0,0,257,256,256,256,257,257,256,256,0,1,0,0,0,0,0,0,0,0,0,0,0,0,0,0,0,0,0,0,0,0,0,0,256,258,263,278,553,558,555,543,279,268,7,6,6,9,10,14,15,271,271,269,263,257,256,256,257,256,0,0,0,1,2,257,257,257,258,258,261,271,275,262,264,276,28,21,17,8,3,2,263,279,290,312,302,275,260,259,259,2,14,299,315,569,587,1130,1140,1108,1126,1138,1140,1114,1130,1145,1137,839.0001,571,571,572,572,580,609,593,324,318,319,319,320,303,277,259,257,263,281,297,308,310,296,297,312,319,319,320,321,306,275,275,302,316,314,316,314,313,312,313,318,320,317,303,277,263,266,268,265,264,264,262,259,258,256,258,269,277,277,278,283,284,297,315,576,844.0001,861.0001,870.0001,871.0001,872.0001,873.0001,864.0001,846.0001,838.0001,839.0001,841.0001,587,588,843.0001,586,585,578,554,562,539,543,569,583,587,587,584,583,584,585,586,587,588,843.0001,838.0001,846.0001,863.0001,871.0001,872.0001,866.0001,853.0001,844.0001,841.0001,839.0001,843.0001,842.0001,840.0001,839.0001,839.0001,846.0001,866.0001,872.0001,870.0001,869.0001,871.0001,1126,867.0001,1120,1116,1118,1124,1127,1130,1130,1384,1642,1392,1135,1134,1131,1123,1118,1114,1113,1114,1106,1074,1072,1103,1117,1127,1387,1385,1117,1097,1063,787.0001,518,2,2,2,1,1,1,257,256,256,256,256,256,256,256,256,0,0,0,0,0,0,0,0,0,0,271,310,357,362,327,287,280,305,317,314,299,16,4,2,2,4,6,8,6,1,0,1,0,0,0,0,0,0,0,0,0,0,0,0,0,1,25,89,383,660,918.0001,902.0001,893.0001,876.0001,897.0001,914.0001,1172,1417,1403,1144,616,588,310,263,257,0,0,0,0,0,0,0,0,0,0,0,0,0,0,0,256,256,256,256,256,0,0,0,0,0,0,0,0,0,1,4,5,4,2,1,0,0,0,0,0,0,0,0,0,0,0,0,0,0,0,0,0,0,0,0,0,0,0,0,0,0,0,0,0,0,0,0,0,0,0,0,0,0,0,0,0,0,0,0,0,0,0,0,0,0,0,0,0,0,0,0,0,0,0,0,0,0,0,0,0,0,0,0,0,0,0,0,0,0,0,0,0,0,0,0,0,0,0,0,0,0,0,0,0,0,0,0,0,0,0,0,0,0,0,0,0,0,0,0,0,0,0,0,0,0,0,0,0,0,0,0,0,0,0,0,0,0,0,0,0
0,0,0,0,0,0,0,0,0,0,0,0,0,0,0,0,0,0,0,0,0,0,0,0,0,0,0,0,0,0,0,0,0,0,0,0,0,0,0,0,0,0,0,0,0,0,0,0,0,0,0,0,0,0,0,0,0,0,0,0,0,0,0,0,0,0,0,0,0,0,0,0,0,0,0,0,0,0,0,0,0,0,0,0,0,0,0,0,0,0,0,0,0,0,0,0,0,0,0,0,0,0,0,0,0,0,0,0,0,0,0,0,0,0,0,0,0,0,0,0,0,0,0,0,0,2,9,12,19,279,285,285,284,547,581,557,279,7,8,3,0,0,1,1,257,256,256,257,256,256,256,0,0,0,0,0,0,0,0,0,0,0,0,0,0,0,0,0,0,1,4,8,9,5,1,2,279,548,550,814.0001,1078,1080,1075,1072,559,559,560,559,556,551,562,566,566,566,566,560,537,532,535,533,270,4,1,1,4,10,273,273,269,264,259,258,259,259,258,258,1,1,2,4,1,1,1,2,260,266,277,279,266,258,256,0,0,0,2,6,10,14,27,288,280,281,289,290,283,285,295,291,272,263,266,269,269,273,283,284,21,17,17,17,17,13,4,1,1,3,6,10,14,13,8,8,12,14,14,14,15,12,4,3,8,10,13,14,13,10,9,10,15,16,13,9,5,9,25,32,287,287,287,286,284,281,279,289,579,844.0001,842.0001,843.0001,846.0001,849.0001,852.0001,854.0001,1111,1114,1119,1122,1122,1123,1123,1120,1370,1624,1626,1372,1374,1375,1375,1374,1116,1112,1106,1102,1100,1103,1111,1116,1117,1373,1371,1371,1372,1373,1375,1376,1378,1377,1375,1377,1381,1383,1381,1378,1374,1372,1373,1374,1377,1377,1375,1117,1116,860.0001,864.0001,865.0001,864.0001,863.0001,864.0001,1118,1115,1112,1109,1106,1104,846.0001,847.0001,846.0001,1101,1112,1126,1130,1133,1123,1118,844.0001,297,284,285,278,269,266,291,319,334,337,336,329,286,265,257,256,0,0,2,1,0,256,256,256,256,256,256,256,256,256,256,0,0,0,0,0,0,0,0,256,256,535,584,640,914.0001,1139,1108,1114,1178,1195,1191,906.0001,572,285,268,269,535,547,563,557,520,257,257,256,0,0,0,0,0,0,0,0,0,0,0,1,1,12,43,343,362,609,569,560,578,608,635,639,625,610,599,586,300,299,260,256,0,0,0,0,0,1,1,1,0,0,0,0,0,0,0,0,256,256,256,256,256,0,0,0,256,256,0,0,0,260,278,280,27,10,2,0,0,0,0,0,0,0,0,0,0,0,0,0,0,0,0,0,0,0,0,0,0,0,0,0,0,0,0,0,0,0,0,0,0,0,0,0,0,0,0,0,0,0,0,0,0,0,0,0,0,0,0,0,0,0,0,0,0,0,0,0,0,0,0,0,0,0,0,0,0,0,0,0,0,0,0,0,0,0,0,0,0,0,0,0,0,0,0,0,0,0,0,0,0,0,0,0,0,0,0,0,0,0,0,0,0,0,0,0,0,0,0,0,0,0,0,0,0,0,0,0,0,0,0,0
0,0,0,0,0,0,0,0,0,0,0,0,0,0,0,0,0,0,0,0,0,0,0,0,0,0,0,0,0,0,0,0,0,0,0,0,0,0,0,0,0,0,0,0,0,0,0,0,0,0,0,0,0,0,0,0,0,0,0,0,0,0,0,0,0,0,0,0,0,0,0,0,0,0,0,0,0,0,0,0,0,0,0,0,0,0,0,0,0,0,0,0,0,0,0,0,0,0,0,0,0,0,0,0,0,0,0,0,0,0,0,0,0,0,0,0,0,0,0,0,0,0,0,0,1,2,12,35,39,286,316,305,578,568,860.0001,581,296,30,32,23,4,0,1,1,0,256,258,258,257,258,256,0,0,0,0,0,0,0,0,0,0,0,0,0,0,0,0,0,0,1,6,12,24,17,1,2,275,543,541,548,1069,1071,1069,1069,814.0001,816.0001,818.0001,818.0001,822.0001,820.0001,825.0001,828.0001,1084,1085,1087,1085,1074,1071,1075,814.0001,289,12,1,2,5,280,547,547,284,276,268,262,261,261,264,260,1,0,1,4,9,13,15,15,270,269,288,276,275,270,260,257,0,0,0,0,0,0,0,1,1,1,3,4,1,2,6,5,257,256,259,263,264,266,271,272,270,269,269,269,268,268,268,270,273,273,272,271,269,269,269,269,266,265,265,266,268,269,272,270,263,261,265,266,265,264,264,265,270,270,266,266,273,290,312,320,320,320,321,320,319,318,317,581,1110,1373,1371,1371,1375,1376,1376,1375,1373,1372,1372,1372,1372,1372,1372,1372,1628,1629,1631,1633,1636,1637,1637,1636,1378,1377,1375,1373,1373,1374,1378,1379,1636,1891,1891,1891,1892,1892,1891,1891,1638,1638,1638,1636,1634,1630,1629,1626,1622,1623,1626,1629,1632,1633,1636,1378,1117,598,593,586,585,583,583,583,581,579,576,572,566,558,551,545,547,559,593,606,608,605,592,558,270,258,258,257,256,256,264,279,287,294,312,288,264,256,256,256,256,263,286,283,261,256,256,256,256,256,256,256,256,256,256,256,256,256,257,265,284,287,272,272,537,563,859.0001,1171,1448,1710,1690,1700,1985,1999,1738,1454,1146,837.0001,566,818.0001,1088,1123,1132,1118,543,516,257,256,0,0,0,0,0,0,0,0,0,0,0,1,1,4,23,291,304,300,269,268,290,320,343,347,332,316,298,287,283,272,257,256,0,0,0,0,0,1,1,1,0,0,0,0,0,0,0,0,1,0,0,0,0,0,0,256,256,257,1,1,1,268,563,594,326,35,9,0,0,0,0,0,0,0,0,0,0,0,0,0,0,0,0,0,0,0,0,0,0,0,0,0,0,0,0,0,0,0,0,0,0,0,0,0,0,0,0,0,0,0,0,0,0,0,0,0,0,0,0,0,0,0,0,0,0,0,0,0,0,0,0,0,0,0,0,0,0,0,0,0,0,0,0,0,0,0,0,0,0,0,0,0,0,0,0,0,0,0,0,0,0,0,0,0,0,0,0,0,0,0,0,0,0,0,0,0,0,0,0,0,0,0,0,0,0,0,0,0,0,0,0,0
0,0,0,0,0,0,0,0,0,0,0,0,0,0,0,0,0,0,0,0,0,0,0,0,0,0,0,0,0,0,0,0,0,0,0,0,0,0,0,0,0,0,0,0,0,0,0,0,0,0,0,0,0,0,0,0,0,0,0,0,0,0,0,0,0,0,0,0,0,0,0,0,0,0,0,0,0,0,0,0,0,0,0,0,0,0,0,0,0,0,0,0,0,0,0,0,0,0,0,0,0,0,0,0,0,0,0,0,0,0,0,0,0,0,0,0,0,0,0,0,1,1,0,0,0,1,7,12,12,278,319,330,317,592,604,606,332,70,86,75,15,0,1,0,0,257,269,276,279,269,260,1,0,0,0,0,0,0,0,0,0,0,0,0,0,0,0,0,0,1,3,5,7,5,0,0,258,263,261,269,540,543,540,540,541,543,547,548,550,553,558,812.0001,1071,1073,1078,1082,1083,1084,1087,1078,291,9,1,2,260,278,546,550,551,547,543,541,551,552,548,539,265,264,277,287,310,316,316,317,832.0001,831.0001,824.0001,813.0001,820.0001,812.0001,800.0001,532,276,273,272,268,6,4,5,9,272,278,280,281,279,279,281,283,795.0001,804.0001,817.0001,826.0001,830.0001,833.0001,833.0001,833.0001,833.0001,833.0001,833.0001,833.0001,832.0001,832.0001,832.0001,833.0001,835.0001,837.0001,837.0001,837.0001,838.0001,837.0001,837.0001,836.0001,836.0001,835.0001,834.0001,834.0001,836.0001,836.0001,837.0001,834.0001,819.0001,822.0001,831.0001,835.0001,834.0001,835.0001,838.0001,840.0001,842.0001,841.0001,837.0001,836.0001,837.0001,841.0001,851.0001,1111,1112,1366,1364,1363,1362,1361,1360,1361,1365,1366,1365,1366,1368,1368,1367,1365,1621,1621,1621,1621,1621,1621,1621,1620,1362,1363,1367,1370,1372,1373,1372,1371,1370,1370,1369,1369,1368,1368,1369,1370,1627,1883,1883,1883,1885,1881,1874,1617,1369,1372,1372,1371,1366,1361,1355,1349,1339,1338,1339,1341,1343,1351,1362,1106,586,318,304,290,280,275,276,277,279,278,276,272,269,264,260,260,262,278,296,321,334,332,310,279,260,256,257,256,256,256,257,257,260,260,263,262,257,256,256,256,256,286,340,370,283,256,256,256,256,256,256,256,256,256,256,256,512,516,534,564,597,623,591,581,1112,1150,1398,1689,1967,2239,2233,2239,2239,2239,2236,1968,1947,1933,1667,1921,2182,2188,1683,1151,840.0001,273,258,1,0,0,0,0,0,2,7,7,1,0,0,0,0,0,4,6,263,263,258,259,261,276,281,285,273,268,262,260,258,258,258,256,0,0,0,0,0,0,1,1,0,0,0,0,0,0,0,0,0,0,0,0,2,2,1,0,257,257,2,3,260,543,875.0001,895.0001,364,66,19,0,0,0,0,0,0,0,0,0,0,0,0,0,0,0,0,0,0,0,0,0,0,0,0,0,0,0,0,0,0,0,0,0,0,0,0,0,0,0,0,0,0,0,0,0,0,0,0,0,0,0,0,0,0,0,0,0,0,0,0,0,0,0,0,0,0,0,0,0,0,0,0,0,0,0,0,0,0,0,0,0,0,0,0,0,0,0,0,0,0,0,0,0,0,0,0,0,0,0,0,0,0,0,0,0,0,0,0,0,0,0,0,0,0,0,0,0,0,0,0,0,0,0,0,0
0,0,0,0,0,0,0,0,0,0,0,0,0,0,0,0,0,0,0,0,0,0,0,0,0,0,0,0,0,0,0,0,0,0,0,0,0,0,0,0,0,0,0,0,0,0,0,0,0,0,0,0,0,0,0,0,0,0,0,0,0,0,0,0,0,0,0,0,0,0,0,0,0,0,0,0,0,0,0,0,0,0,0,0,0,0,0,0,0,0,0,0,0,0,0,0,0,0,0,0,0,0,0,0,0,0,0,0,0,0,0,0,0,0,0,0,0,0,0,0,1,1,1,1,0,1,2,4,2,13,33,302,304,328,590,317,45,49,77,50,15,1,0,0,0,256,273,295,298,278,270,10,2,0,0,0,0,0,0,0,0,0,0,0,0,0,0,0,0,0,1,2,2,2,0,0,0,1,0,2,262,264,518,518,262,264,270,272,275,278,287,539,799.0001,802.0001,808.0001,814.0001,820.0001,820.0001,819.0001,554,275,3,0,0,257,261,269,534,541,543,544,545,552,550,543,279,266,275,296,306,318,322,320,578,1097,1093,1087,1081,1081,1081,1078,1075,566,307,304,296,280,264,263,277,286,292,297,300,301,302,303,560,1075,1080,1086,1093,1098,1101,1100,1101,1101,1101,1101,1100,1099,1098,1098,1099,1101,1103,1104,1105,1106,1106,1106,1106,1107,1362,1361,1361,1362,1363,1364,1106,1104,1102,1104,1104,1103,1104,1108,1110,1112,1111,1107,1107,1107,1110,1115,1374,1628,1627,1627,1626,1624,1622,1621,1619,1617,1617,1618,1619,1620,1619,1617,1617,1617,1617,1617,1617,1617,1617,1617,1616,1359,1359,1363,1364,1365,1364,1363,1363,1363,1364,1365,1365,1364,1365,1365,1365,1365,1621,1619,1617,1615,1608,1594,1331,1090,1095,1095,1094,1089,1082,1069,1059,1052,1047,1047,1049,1053,1065,1080,568,303,290,277,265,257,256,256,257,258,258,1,1,1,0,0,0,0,3,15,29,49,41,27,13,7,4,1,0,1,0,0,0,0,0,0,1,1,1,0,0,0,29,115,115,28,0,0,0,0,0,0,0,0,1,3,265,789.0001,1063,1090,1126,1163,1175,1160,1158,1170,1432,1687,1949,2220,2488,2492,2489,2483,2477,2475,2471,2466,2462,2453,2451,2712,2457,1947,1158,566,275,1,0,0,0,0,0,0,1,27,7,2,0,0,0,0,1,1,0,0,0,0,0,0,1,0,1,0,0,0,0,0,0,0,0,0,0,0,0,0,0,2,2,1,0,0,0,0,0,0,0,0,0,0,1,10,12,3,4,271,281,290,295,552,832.0001,1152,1165,374,337,275,256,256,256,256,0,0,0,0,0,0,0,0,0,0,0,0,0,0,0,0,0,0,0,0,0,0,0,0,0,0,0,0,0,0,0,0,0,0,0,0,0,0,0,0,0,0,0,0,0,0,0,0,0,0,0,0,0,0,0,0,0,0,0,0,0,0,0,0,0,0,0,0,0,0,0,0,0,0,0,0,0,0,0,0,0,0,0,0,0,0,0,0,0,0,0,0,0,0,0,0,0,0,0,0,0,0,0,0,0,0,0,0,0,0,0,0,0,0,0,0,0,0,0,0,0
0,0,0,0,0,0,0,0,0,0,0,0,0,0,0,0,0,0,0,0,0,0,0,0,0,0,0,0,0,0,0,0,0,0,0,0,0,0,0,0,0,0,0,0,0,0,0,0,0,0,0,0,0,0,0,0,0,0,0,0,0,0,0,0,0,0,0,0,0,0,0,0,0,0,0,0,0,0,0,0,0,0,0,0,0,0,0,0,0,0,0,0,0,0,0,0,0,0,0,0,0,0,0,0,0,0,0,0,0,0,0,0,0,0,0,0,0,0,0,0,1,1,2,2,0,0,1,1,1,3,4,9,272,278,278,273,8,7,14,13,3,0,0,0,0,256,261,268,266,278,306,29,6,0,0,0,0,0,0,0,0,0,0,0,0,0,0,0,0,0,0,0,0,0,0,0,0,0,0,0,0,0,256,256,0,1,2,5,6,4,7,7,263,275,283,288,290,283,272,7,4,0,0,0,256,256,256,1,4,6,7,9,12,10,8,262,260,262,273,283,295,297,292,294,813.0001,1071,1067,1067,1071,1076,1084,1089,579,578,316,302,272,261,5,9,275,284,292,300,310,314,317,315,826.0001,1081,1083,1085,1091,1094,1095,1096,1095,1094,1094,1092,1090,1089,1088,1089,1092,1094,1094,1095,1097,1099,1100,1101,1103,1359,1358,1358,1360,1362,1365,1110,1106,1103,1104,1102,1101,1101,1103,1105,1109,1109,1103,1101,1101,1103,1105,1106,1361,1360,1363,1364,1365,1360,1356,1352,1611,1613,1616,1617,1616,1615,1614,1614,1359,1359,1359,1359,1359,1359,1359,1359,1358,1358,1359,1359,1358,1357,1355,1356,1355,1356,1358,1359,1361,1363,1365,1108,1106,1103,1098,1092,1082,1065,790.0001,526,273,277,279,279,277,272,266,261,259,258,259,260,261,264,269,270,9,6,3,1,0,0,0,0,1,1,0,0,0,0,0,0,0,1,2,4,8,9,10,16,28,23,4,0,0,0,0,0,0,0,0,0,2,2,1,0,1,12,41,41,9,0,0,0,0,0,0,0,0,4,13,296,1349,1905,1925,1938,1953,1956,1951,1949,1441,1438,1694,1952,2205,2459,2714,2714,2460,2458,2455,2452,2449,2443,2437,2436,2183,1926,1665,1129,287,2,1,0,0,0,0,0,0,0,2,4,1,1,1,1,0,0,0,0,0,0,1,1,0,0,0,0,0,0,0,0,0,0,0,0,0,0,0,0,0,1,4,6,259,258,257,257,0,0,0,0,0,1,0,5,52,29,8,17,307,606,621,628,1137,1145,1151,887.0001,337,303,265,256,256,256,256,256,0,0,0,0,0,0,0,0,0,0,0,0,0,0,0,0,0,0,0,0,0,0,0,0,0,0,0,0,0,0,0,0,0,0,0,0,0,0,0,0,0,0,0,0,0,0,0,0,0,0,0,0,0,0,0,0,0,0,0,0,0,0,0,0,0,0,0,0,0,0,0,0,0,0,0,0,0,0,0,0,0,0,0,0,0,0,0,0,0,0,0,0,0,0,0,0,0,0,0,0,0,0,0,0,0,0,0,0,0,0,0,0,0,0,0,0,0,0,0,0
0,0,0,0,0,0,0,0,0,0,0,0,0,0,0,0,0,0,0,0,0,0,0,0,0,0,0,0,0,0,0,0,0,0,0,0,0,0,0,0,0,0,0,0,0,0,0,0,0,0,0,0,0,0,0,0,0,0,0,0,0,0,0,0,0,0,0,0,0,0,0,0,0,0,0,0,0,0,0,0,0,0,0,0,0,0,0,0,0,0,0,0,0,0,0,0,0,0,0,0,0,0,0,0,0,0,0,0,0,0,0,0,0,0,0,0,0,0,0,0,1,1,2,1,0,0,0,1,1,0,0,0,3,264,263,258,0,0,0,0,0,0,0,0,0,256,258,260,261,273,310,36,7,0,0,0,0,0,0,0,0,0,0,0,0,0,0,0,0,0,0,0,0,0,0,0,0,0,0,0,2,6,263,262,259,261,272,286,295,292,288,22,10,10,14,13,13,9,2,0,1,2,7,271,266,265,260,2,1,1,1,1,1,1,1,1,1,258,264,269,275,273,269,270,529,531,528,531,540,552,566,833.0001,837.0001,835.0001,571,298,268,2,2,3,7,269,279,285,294,299,302,303,557,556,554,556,563,568,570,570,566,564,563,561,559,557,556,557,558,559,559,560,566,570,574,834.0001,1092,1093,1094,1096,1098,1100,1103,1102,839.0001,577,574,573,571,571,572,574,579,579,571,570,569,570,571,827.0001,1083,1084,1091,1094,1092,1089,1085,1083,1341,1344,1348,1350,1349,1350,1351,1355,1357,1359,1359,1359,1359,1359,1359,1357,1099,1096,1092,1090,1086,1083,1081,1081,1081,1081,1083,1085,1090,1093,1097,839.0001,577,572,566,559,543,529,516,257,257,1,2,3,2,1,0,0,0,0,0,0,0,0,0,0,0,0,0,0,0,0,0,0,0,0,0,0,0,0,0,0,0,0,0,0,0,0,2,13,54,30,4,0,0,1,1,1,1,1,1,1,3,3,1,1,0,2,8,8,2,0,0,0,0,1,0,0,0,4,32,333,1648,2441,2457,2461,2464,2464,2464,2207,1695,1432,1682,1931,2182,2434,2688,2688,2431,2176,2171,1912,1910,1646,1635,1376,1378,1123,1115,566,269,0,0,0,0,0,0,0,0,0,1,1,1,0,1,1,1,0,0,0,0,0,0,0,0,0,0,0,0,0,0,1,2,4,10,14,14,12,2,2,1,3,12,279,545,551,546,284,10,3,0,0,0,0,1,6,23,28,16,39,598,647,920.0001,1174,1166,1150,618,322,40,17,3,0,0,0,0,0,0,0,0,0,0,0,0,0,0,0,0,0,0,0,0,0,0,0,0,0,0,0,0,0,0,0,0,0,0,0,0,0,0,0,0,0,0,0,0,0,0,0,0,0,0,0,0,0,0,0,0,0,0,0,0,0,0,0,0,0,0,0,0,0,0,0,0,0,0,0,0,0,0,0,0,0,0,0,0,0,0,0,0,0,0,0,0,0,0,0,0,0,0,0,0,0,0,0,0,0,0,0,0,0,0,0,0,0,0,0,0,0,0,0,0,0,0,0,0,0
0,0,0,0,0,0,0,0,0,0,0,0,0,0,0,0,0,0,0,0,0,0,0,0,0,0,0,0,0,0,0,0,0,0,0,0,0,0,0,0,0,0,0,0,0,0,0,0,0,0,0,0,0,0,0,0,0,0,0,0,0,0,0,0,0,0,0,0,0,0,0,0,0,0,0,0,0,0,0,0,0,0,0,0,0,0,0,0,0,0,0,0,0,0,0,0,0,0,0,0,0,0,0,0,0,0,0,0,0,0,0,0,0,0,0,0,0,0,0,0,0,1,1,1,0,0,0,0,1,1,1,2,7,278,279,265,1,0,0,0,0,0,0,0,0,257,256,257,257,262,281,40,4,0,0,0,0,0,0,0,0,0,0,0,0,0,0,0,0,0,1,1,0,0,0,0,0,0,0,4,288,305,310,310,558,566,578,619,639,640,630,585,42,19,5,0,1,2,0,1,4,23,312,321,578,566,299,286,16,6,1,0,0,1,1,1,0,257,257,258,258,258,257,257,258,258,257,258,260,272,287,558,1082,1078,806.0001,533,260,1,1,2,4,262,264,264,260,260,265,271,266,265,263,266,280,286,289,288,281,277,273,271,268,265,263,262,260,260,259,261,270,280,292,299,557,817.0001,824.0001,830.0001,833.0001,835.0001,833.0001,570,297,284,275,272,273,275,273,277,297,295,279,271,271,270,271,271,526,537,556,562,564,558,546,541,546,550,555,559,564,570,576,1095,1358,1617,1617,1617,1617,1617,1617,1357,1092,1084,819.0001,808.0001,792.0001,787.0001,784.0001,527,271,271,273,277,540,548,558,299,280,272,13,9,4,2,1,1,0,0,0,0,0,0,0,0,0,0,0,0,1,0,0,0,0,0,0,0,0,0,0,0,0,0,0,0,0,0,0,0,0,0,0,0,0,0,1,7,47,23,1,0,0,1,4,5,4,3,2,1,1,1,0,0,0,0,0,0,0,0,0,0,1,1,1,0,1,9,45,604,1917,2696,2701,2698,2700,2700,2699,2441,1670,1406,1648,1897,2156,2414,2407,2401,2153,1891,1625,1364,1106,835.0001,554,285,540,543,277,269,2,0,0,0,0,0,0,0,0,0,1,1,0,0,0,1,1,1,0,0,0,0,0,0,0,0,0,0,0,0,2,5,4,25,59,79,76,66,44,22,4,6,23,331,599,891.0001,612,612,303,21,3,0,0,0,1,2,2,8,29,87,661,944.0001,1199,1185,897.0001,592,44,15,5,2,0,0,0,0,0,0,0,0,0,0,0,0,0,0,0,0,0,0,0,0,0,0,0,0,0,0,0,0,0,0,0,0,0,0,0,0,0,0,0,0,0,0,0,0,0,0,0,0,0,0,0,0,0,0,0,0,0,0,0,0,0,0,0,0,0,0,0,0,0,0,0,0,0,0,0,0,0,0,0,0,0,0,0,0,0,0,0,0,0,0,0,0,0,0,0,0,0,0,0,0,0,0,0,0,0,0,0,0,0,0,0,0,0,0,0,0,0,0,0,0,0,0,0,0,0,0
0,0,0,0,0,0,0,0,0,0,0,0,0,0,0,0,0,0,0,0,0,0,0,0,0,0,0,0,0,0,0,0,0,0,0,0,0,0,0,0,0,0,0,0,0,0,0,0,0,0,0,0,0,0,0,0,0,0,0,0,0,0,0,0,0,0,0,0,0,0,0,0,0,0,0,0,0,0,0,0,0,0,0,0,0,0,0,0,0,0,0,0,0,0,0,0,0,0,0,0,0,0,0,0,0,0,0,0,0,0,0,0,0,0,0,0,0,0,0,0,0,0,1,1,0,0,0,0,1,1,1,2,5,8,10,8,2,0,0,0,256,257,258,260,261,262,258,257,256,260,265,12,2,0,0,0,0,0,0,0,0,0,0,0,0,0,0,0,0,0,0,1,0,0,1,1,0,0,0,272,332,611,618,870.0001,858.0001,1110,1127,1148,1176,1188,1169,887.0001,338,32,4,0,0,0,0,2,13,292,354,627,876.0001,865.0001,601,310,296,22,4,0,0,0,1,1,0,0,0,0,0,0,1,0,256,256,256,256,256,258,268,280,548,802.0001,528,261,256,0,0,4,271,286,299,294,268,257,257,257,1,1,0,257,260,263,264,262,258,0,0,0,0,1,4,265,270,272,269,265,259,3,12,273,278,541,550,558,562,563,560,296,273,5,1,0,1,2,1,2,10,10,4,2,1,1,0,257,257,260,269,275,278,273,268,264,265,268,273,278,284,292,302,569,1094,1613,1614,1614,1613,1611,1607,1343,816.0001,547,536,268,261,258,257,257,257,1,1,2,260,268,277,276,4,1,0,0,0,0,0,0,0,0,0,0,0,0,0,0,1,1,0,2,15,272,259,256,256,0,0,0,0,0,0,0,0,0,0,0,0,0,0,1,1,0,0,0,0,0,0,5,25,28,269,265,273,284,292,297,295,291,287,283,279,270,258,256,0,0,0,0,0,0,0,0,257,257,256,256,256,266,298,595,1646,2426,2162,2157,2162,2160,1901,1641,1129,1119,1097,1338,1610,1614,1602,1590,1349,1078,1062,806.0001,547,283,263,260,265,265,259,256,0,0,0,0,0,256,256,256,256,256,256,0,0,0,0,1,1,1,1,1,1,4,12,12,3,1,1,4,8,20,38,41,30,46,114,393,397,388,360,305,272,260,279,313,635,912.0001,650,625,330,27,4,0,0,1,4,3,0,2,20,62,660,1201,1200,1176,619,310,12,0,0,0,0,1,1,1,1,0,0,0,0,0,0,0,0,0,0,0,0,0,0,0,0,0,0,0,0,0,0,0,0,0,0,0,0,0,0,0,0,0,0,0,0,0,0,0,0,0,0,0,0,0,0,0,0,0,0,0,0,0,0,0,0,0,0,0,0,0,0,0,0,0,0,0,0,0,0,0,0,0,0,0,0,0,0,0,0,0,0,0,0,0,0,0,0,0,0,0,0,0,0,0,0,0,0,0,0,0,0,0,0,0,0,0,0,0,0,0,0,0,0,0,0,0,0,0,0,0
