508.0078,520.957,523.9453,516.9727,513.9844,517.9688,531.9141,538.8867,551.8359,565.7813,574.7461,584.707,596.6602,610.6055,627.5391,639.4922,426.3281,427.1063,427.5421,427.9935,428.9584,429.4565,430.8417,432.4915,433.8611,436.04,439.7754,440.2734,443.2617,446.25,450.1099,454.8413,460.9424,466.9189,473.3936,476.8799,479.6191,484.1016,486.0938,491.0742,504.0234,513.4863,524.9414,536.8945,548.8477,558.8086,570.7617,583.7109,592.6758,606.6211,614.5898,628.5352,640.4883,654.4336,659.4141,669.375,458.2031,458.8257,459.137,459.993,461.1603,462.7167,463.8684,466.0474,467.915,469.7205,473.7671,478.125,481.3623,488.0859,491.3232,498.7939,504.5215,511.4941,515.2295,522.9492,525.9375,532.4121,542.8711,555.3223,564.7852,573.252,580.7227,586.6992,589.6875,587.6953,613.5938,0,0,0,0,0,0,540.6299,524.6924,0,0,0,0,614.8389,606.6211,603.1348,604.8779,600.6445,585.7031,0,0,0,0,0,0,0,0,0,0,0,0,0,0,0,0,541.377,545.1123,548.8477,551.8359,556.8164,564.2871,576.2402,582.2168,589.6875,603.6328,618.5742,634.5117,644.4727,650.4492,665.3906,672.3633,688.3008,704.2383,735.1172,521.9531,522.8091,523.385,524.5834,525.0815,526.2488,527.6184,529.4861,531.3538,534.6533,538.0151,543.4937,547.478,553.0811,558.0615,564.7852,570.7617,574.248,581.7188,586.6992,597.6563,603.1348,614.0918,626.0449,638.4961,647.4609,658.418,669.375,686.3086,699.2578,716.1914,728.1445,746.0742,0,0,0,299.8242,301.8164,307.793,299.8242,303.8086,296.8359,290.8594,266.9531,254.0039,234.5801,224.6191,218.1445,214.1602,208.1836,204.1992,200.7129,197.2266,195.2344,193.7402,190.752,188.2617,186.2695,184.2773,182.2852,181.2891,181.2891,181.2891,180.293,181.2891,183.2813,185.2734,188.2617,192.7441,195.2344,197.2266,199.7168,199.7168,204.1992,208.1836,211.6699,213.1641,218.1445,218.1445,222.1289,226.1133,234.5801,246.0352,264.9609,279.9023,285.8789,294.8438,303.8086,305.8008,305.8008,311.7773,311.7773,313.7695,323.7305,325.7227,333.6914,0,0,0,0,855.6445,877.5586,879.5508,897.4805,717.2653,926.3672,718.2147,719.1019,719.2264,0,0,436.2891,395.9473,373.0371,371.543,375.5273,385.4883,395.9473,0,0,0,0,0,0,0,0,0,0,0,0,434.2969,438.2813,449.2383,451.2305,451.2305,467.168,0,0,0,312.2131,311.326,487.0898,429.3164,423.3398,0,0,0,0,0,0,0,0,0,0,0,0,330.7031,321.4893,317.2559,319.9951,322.2363,0,0,0,0,0,0,0,0,0,0,0,0,997.0898,0,0,0,0,0,0,0,0,0,0,0,0,0,0,0,0,0,0,0,0,0,0,0,0,0,0,0,0,0,0,0,0,0,0,0,0,0,0,0,0,0,0,0,0,0,0,0,0,0,0,0,0,0,0,0,0,0,0,0,0,0,0,0,0,0,0,0,0,0,0,0,942.9428,943.9856,945.0439,947.8455,950.0244,951.8298,955.8765,966.958,966.958,977.915,987.3779,999.082,0,0,0,1236.152,1228.682,1223.141,1220.339,0,0,0,0,0,0,0,0,0,0,0,0,0,0,0,0,0,0,0,0,0,0,0,0,0,0,0,0,0,0,0,0,0,0,0,0,0,0,0,1410.469,1379.59,1330.781,1326.797,1283.965,1254.082,1225.693,1206.021,1180.371,1171.033,1161.632,1158.784,1156.496,1344.727,1287.949,1259.063,1225.195,1200.791,1183.359,1175.391,1155.718,1134.302,1119.609,1113.633,1106.38,1102.022,1100.232,1270.02,1219.219,1180.371,1163.438,1141.025,1136.045,1106.66,1093.462,1075.781,1066.567,1056.98,1052.684,1046.085,1251.094,1202.285,1180.371,1145.508,1116.621,1085.742,1067.314,1051.128,1038.179,1027.969,1021.619,1011.658,1003.347,1000.389,997.5256,1189.336,1156.465,1118.613,1089.727,1058.35,1033.945,1018.008,1007.051,994.3506,982.3975,978.6621,970.1953,959.7363,948.7793,942.9428,1147.5,1080.762,1052.871,1037.93,1021.992,991.1133,986.1328,0,0
501.0352,517.9688,520.957,512.4902,509.502,517.9688,525.9375,533.9063,544.8633,556.8164,565.7813,576.7383,588.6914,604.6289,622.5586,635.5078,649.4531,426.8729,427.3553,427.869,428.367,429.1296,430.2191,431.4954,432.4915,435.1062,438.219,440.647,443.2617,447.8687,452.3511,457.4561,462.4365,468.4131,475.8838,478.623,480.3662,487.0898,490.0781,492.0703,504.0234,512.4902,519.9609,528.9258,538.3887,549.8438,557.8125,570.7617,581.7188,601.6406,612.5977,632.5195,642.4805,659.4141,657.4219,663.3984,675.3516,458.67,459.0591,459.993,461.1603,462.7167,463.6194,465.7361,467.6038,469.7205,473.7671,478.623,482.4829,488.584,492.8174,498.0469,504.5215,510.498,512.2412,516.9727,518.9648,522.9492,531.416,544.3652,559.3066,568.7695,577.7344,583.7109,587.6953,584.707,0,0,0,0,0,0,0,0,0,0,0,0,0,615.5859,604.8779,600.6445,599.1504,595.415,0,0,0,0,0,0,0,0,0,0,0,0,0,0,0,0,0,547.8516,547.1045,547.8516,551.8359,555.8203,561.2988,571.2598,580.7227,594.1699,599.1504,618.5742,624.5508,640.4883,644.4727,663.3984,672.3633,688.3008,708.2227,731.1328,522.0309,522.7313,523.0737,524.1321,524.7546,526.0309,527.3694,529.2059,531.3538,535.8984,537.5171,542.9956,548.5986,551.8359,556.5674,562.5439,568.2715,573.252,578.9795,585.7031,592.1777,599.6484,610.6055,624.5508,634.0137,644.4727,653.4375,666.3867,677.3438,690.293,702.2461,720.1758,0,0,0,0,294.8438,297.832,301.8164,296.8359,294.8438,287.8711,279.9023,261.9727,246.0352,228.6035,223.623,213.1641,208.1836,201.709,200.7129,197.2266,195.2344,191.748,191.748,188.2617,186.2695,186.2695,184.2773,181.2891,180.293,179.2969,178.3008,177.3047,178.3008,181.2891,183.2813,187.2656,190.752,192.7441,193.7402,197.2266,197.2266,201.709,205.6934,209.1797,210.1758,215.6543,215.6543,220.6348,224.6191,234.5801,251.0156,271.9336,285.8789,292.8516,305.8008,301.8164,309.7852,315.7617,327.7148,323.7305,327.7148,333.6914,335.6836,335.6836,0,0,0,0,844.6875,861.6211,867.5977,895.4883,928.3594,0,717.8879,718.5104,718.8528,717.1875,0,441.2695,393.457,376.5234,371.543,376.5234,386.4844,0,0,0,0,0,0,0,0,0,0,0,0,0,429.3164,434.2969,438.2813,443.2617,443.2617,461.1914,0,0,0,311.326,539.8828,462.1875,421.3477,415.3711,0,0,0,0,0,0,0,0,0,0,0,0,333.1934,327.4658,320.7422,324.4775,327.4658,0,0,0,0,0,0,0,0,911.4258,932.3438,929.3555,938.3203,945.293,993.1055,0,848.7497,0,0,0,0,0,0,0,0,0,0,0,0,0,0,0,0,0,0,0,0,0,0,0,0,0,0,0,0,0,0,0,0,0,0,0,0,0,0,0,0,0,0,0,0,0,0,0,0,0,0,0,0,0,0,0,0,0,0,0,0,0,0,0,0,0,0,0,1145.508,1143.516,941.1685,943.4409,945.7288,950.0244,951.8298,958.2422,967.5806,968.8257,980.1563,0,0,0,0,0,1243.623,1227.312,1221.709,1217.662,0,0,0,0,0,0,0,0,0,0,0,0,0,0,0,0,0,0,0,0,0,0,0,0,0,0,0,0,0,0,0,0,0,0,0,0,0,0,1400.508,1383.574,1357.676,1312.852,1315.84,1273.506,1244.121,1219.219,1202.534,1180.371,1170.659,1161.632,1158.27,1156.247,1336.758,1287.949,1257.07,1239.141,1213.242,1191.826,1177.383,1161.445,1129.57,1117.119,1111.578,1105.602,1101.726,1100.154,1276.992,1221.211,1180.371,1161.943,1143.516,1128.574,1105.664,1090.972,1072.419,1063.828,1056.606,1051.159,1046.085,1044.14,1196.309,1174.395,1146.504,1118.613,1092.217,1077.275,1056.855,1041.416,1029.214,1023.362,1015.02,1005.806,1001.51,998.4283,996.1716,1160.449,1118.613,1085.742,1046.895,1023.984,1011.533,998.0859,984.1406,975.6738,973.4326,964.5923,955.8765,948.1567,943.6276,940.546,1088.73,1065.82,1051.875,1028.965,993.6035,984.6387,952.2656,0
499.541,509.502,510.9961,506.5137,506.5137,517.9688,526.9336,531.9141,543.8672,554.8242,560.8008,571.7578,576.7383,594.668,616.582,635.5078,643.4766,426.795,427.262,427.5421,427.76,428.5071,429.4565,431.0596,432.7405,435.7288,439.7754,442.3901,443.7598,448.3667,453.5962,458.2031,463.1836,469.1602,475.8838,476.8799,480.3662,485.0977,490.0781,492.0703,502.0313,510.9961,518.4668,527.4316,538.3887,546.8555,552.832,563.7891,575.7422,588.6914,601.6406,620.5664,630.5273,644.4727,648.457,661.4063,675.3516,458.4366,458.9035,459.8685,460.8334,461.8762,463.8684,465.4559,467.2925,469.3469,472.8955,475.6348,478.623,483.1055,485.4712,490.5762,497.2998,504.5215,507.0117,514.2334,517.9688,522.9492,529.4238,544.3652,557.8125,567.2754,576.2402,587.6953,589.6875,589.6875,0,0,0,0,0,0,579.7266,0,533.9063,517.3462,0,0,0,625.5469,609.1113,602.3877,599.1504,593.9209,0,0,0,0,0,0,0,0,0,0,0,0,0,0,0,0,0,544.1162,544.1162,546.1084,552.832,556.8164,561.2988,576.2402,584.707,594.1699,606.6211,616.582,634.5117,637.5,654.4336,661.4063,672.3633,682.3242,698.2617,725.1563,741.0938,522.5757,522.9803,523.743,524.9103,526.2488,527.6184,529.4861,532.0386,533.844,538.5132,544.6143,547.478,551.8359,555.0732,560.3027,565.7813,569.7656,577.9834,579.7266,590.6836,597.6563,612.5977,620.5664,631.0254,642.4805,650.4492,662.4023,676.3477,688.3008,700.2539,720.1758,0,0,0,0,294.8438,297.832,299.8242,296.8359,292.8516,285.8789,276.9141,259.9805,243.0469,227.6074,214.1602,208.1836,203.2031,197.2266,196.2305,193.7402,190.752,188.2617,188.2617,186.2695,184.2773,184.2773,183.2813,181.2891,179.2969,177.3047,175.5615,175.5615,176.5576,178.3008,180.293,185.2734,188.2617,190.752,193.7402,196.2305,196.2305,199.7168,201.709,204.1992,206.6895,211.6699,213.1641,218.1445,224.6191,234.5801,251.0156,269.9414,287.8711,297.832,317.7539,315.7617,317.7539,315.7617,317.7539,315.7617,317.7539,323.7305,331.6992,339.668,0,0,0,0,844.6875,865.6055,881.543,904.4531,717.7322,717.5766,718.5104,719.3665,719.3665,0,0,0,394.9512,371.543,367.0605,373.0371,386.4844,407.4023,0,0,0,0,0,0,0,0,0,0,0,0,425.332,427.3242,429.3164,431.3086,434.2969,449.2383,0,0,0,312.6956,311.4038,475.1367,416.3672,403.418,0,0,0,0,0,0,0,0,0,0,0,336.4307,329.707,323.7305,318.75,321.4893,323.7305,0,0,0,0,0,0,0,896.9824,912.9199,941.3086,938.3203,948.2813,951.2695,0,1033.945,1055.859,849.6991,851.3022,0,0,0,0,0,0,0,0,0,0,0,0,0,0,0,0,0,0,0,0,0,0,0,0,0,0,0,0,0,0,0,0,0,0,0,0,0,0,0,0,0,0,0,0,0,0,0,0,0,0,0,1040.918,0,0,0,0,0,0,0,0,0,0,0,0,0,1110.645,1123.594,940.7794,942.4915,944.3903,948.7793,952.2034,956.8726,965.2148,971.4404,977.168,990.8643,0,0,0,0,0,1225.195,1220.339,1216.199,0,0,0,0,0,0,0,0,0,0,0,0,0,0,0,0,0,0,0,0,0,0,0,0,0,0,0,0,0,0,0,0,0,0,0,0,0,0,1379.59,1367.637,1330.781,1295.918,1294.922,1269.023,1237.646,1217.227,1201.787,1180.994,1168.542,1159.982,1156.901,1354.688,1309.863,1273.008,1259.063,1245.117,1226.191,1200.791,1183.359,1163.438,1134.302,1118.613,1114.38,1105.104,1101.866,1100.077,1270.02,1210.254,1188.34,1163.438,1142.52,1122.598,0,0,0,1062.832,1058.225,1050.319,1047.035,1044.684,1206.27,1176.387,1156.465,1121.602,1102.676,1084.746,1063.828,1044.902,1030.708,1025.229,1019.253,1007.985,1003.347,999.0509,996.2494,1154.473,1113.633,1084.746,1046.895,1026.475,1007.051,997.3389,982.3975,975.6738,970.6934,962.3511,953.7598,946.7249,943.4409,940.546,1100.684,1069.805,1052.871,1023.984,992.1094,982.1484,0,0
497.0508,502.5293,502.5293,499.541,499.541,512.4902,520.957,528.9258,539.8828,549.8438,556.8164,571.7578,580.7227,600.6445,616.582,635.5078,643.4766,426.4838,426.795,427.3553,427.76,428.2425,429.4565,431.0596,431.9934,435.4175,439.7754,442.8882,444.2578,448.3667,452.9736,457.4561,460.9424,466.9189,471.6504,473.3936,475.8838,481.3623,488.0859,492.0703,498.5449,508.5059,514.9805,523.4473,534.4043,545.8594,552.832,563.7891,571.7578,581.7188,597.6563,614.5898,632.5195,648.457,657.4219,669.375,679.3359,458.5144,458.9035,459.993,460.8334,462.2809,463.6194,465.7361,466.9812,469.3469,472.522,476.1328,478.623,483.728,485.4712,492.0703,498.0469,503.5254,504.5215,513.2373,515.2295,522.9492,532.4121,546.8555,560.8008,567.2754,573.252,583.7109,583.7109,0,0,0,0,0,0,0,0,0,537.8906,518.5913,0,0,0,0,614.8389,603.1348,595.415,0,0,0,0,0,0,0,0,0,0,0,0,0,0,0,0,0,0,541.377,541.377,546.1084,550.8398,554.8242,562.2949,573.75,580.7227,598.1543,606.6211,624.5508,639.4922,644.4727,650.4492,663.3984,672.3633,684.3164,704.2383,721.1719,741.0938,522.2644,522.5757,523.1671,524.2877,525.6262,527.3694,529.4861,532.4121,535.4004,538.8867,542.9956,547.478,549.8438,553.0811,558.8086,564.7852,568.2715,575.9912,583.7109,586.6992,597.6563,609.1113,620.5664,628.5352,644.4727,651.4453,662.4023,677.3438,688.3008,704.2383,730.1367,0,0,0,0,287.8711,294.8438,297.832,294.8438,287.8711,283.8867,273.9258,258.9844,246.0352,227.6074,216.6504,206.6895,200.7129,193.7402,192.7441,190.752,188.2617,187.2656,186.2695,185.2734,184.2773,184.2773,183.2813,181.2891,178.3008,174.5654,171.8262,170.8301,171.8262,174.5654,177.3047,183.2813,186.2695,189.7559,191.748,193.7402,195.2344,196.2305,198.2227,200.7129,204.1992,208.1836,211.6699,216.6504,222.1289,234.5801,248.0273,266.9531,294.8438,301.8164,315.7617,315.7617,319.7461,319.7461,321.7383,325.7227,323.7305,331.6992,337.6758,0,0,0,0,0,865.6055,879.5508,885.5273,912.4219,717.8101,0,717.8101,718.6194,717.5766,0,0,0,389.4727,371.543,371.543,375.5273,389.4727,406.4063,0,0,0,0,0,0,0,0,0,0,0,0,429.3164,425.332,429.3164,431.3086,434.2969,453.2227,0,0,0,312.8201,311.7151,497.0508,427.3242,407.4023,0,0,0,0,0,0,0,0,0,0,0,336.4307,331.4502,325.2246,322.2363,323.7305,329.707,0,0,0,0,0,0,0,0,912.9199,946.2891,951.2695,965.2148,978.1641,1045.898,1055.859,849.3723,850.2127,0,0,0,0,0,0,0,0,0,0,0,0,0,0,0,0,0,0,0,0,0,0,0,0,0,0,0,0,0,0,0,0,0,0,0,0,0,0,0,0,0,0,0,0,0,0,0,952.7637,962.2266,978.1641,1015.02,1048.887,1074.785,892.5,893.5272,894.9747,897.6672,905.5737,916.7798,0,0,0,0,1016.016,1031.953,1044.902,1072.793,1084.746,1141.523,941.4331,942.7872,947.5653,953.0127,960.2344,968.8257,975.6738,982.3975,994.3506,999.082,0,0,0,0,1226.814,1220.962,1216.417,0,0,0,0,0,0,0,0,0,0,0,0,0,0,0,0,0,0,0,0,0,0,0,0,0,0,0,0,0,0,0,0,0,0,0,0,0,0,1371.621,1353.691,1317.832,1300.898,1289.941,1267.529,1241.631,1222.207,1198.301,1182.114,1169.788,1161.134,1156.901,1155.469,1313.848,1279.98,1262.051,1250.098,1220.215,1199.297,1177.383,1153.726,1125.71,1115.75,1110.458,1103.983,1101.353,1100.154,1268.027,1210.254,1189.336,1167.422,1140.029,1124.092,0,0,1062.832,1059.968,1055.424,1049.073,1046.381,1044.607,1208.262,1174.395,1158.457,1122.598,1101.182,1084.746,1061.836,1037.432,1023.984,1018.755,1013.027,1004.561,1001.759,999.2221,996.405,1168.418,1122.598,1082.754,1034.941,1018.008,996.3428,987.3779,975.6738,969.4482,960.7324,955.5029,950.0244,945.2618,942.6471,940.4681,1102.676,1067.813,1047.891,1020.996,993.6035,977.168,943.0518,0
497.0508,517.9688,0,508.0078,497.0508,517.9688,519.9609,531.9141,536.8945,551.8359,553.8281,567.7734,571.7578,592.6758,604.6289,620.5664,633.5156,649.4531,426.4838,427.1063,427.4487,427.9935,428.9584,430.8417,431.9934,436.04,439.4019,443.2617,443.2617,446.748,449.4873,453.5962,458.2031,464.6777,470.1563,474.1406,476.8799,480.3662,486.0938,488.0859,494.0625,505.0195,512.4902,522.4512,531.416,541.377,545.8594,558.8086,566.7773,580.7227,592.6758,610.6055,626.543,644.4727,657.4219,671.3672,679.3359,458.4366,458.8257,459.4171,460.5377,462.0941,463.8684,465.7361,467.6038,468.9734,472.522,475.1367,476.6309,481.3623,482.4829,487.3389,493.5645,499.541,502.0313,511.4941,513.2373,517.9688,526.9336,536.8945,541.875,554.3262,559.3066,570.2637,566.2793,0,0,0,0,0,0,0,0,0,538.8867,521.2061,0,0,0,0,618.5742,604.8779,592.4268,588.9404,0,0,0,0,0,0,0,0,0,0,0,1062.832,0,0,0,0,0,537.8906,542.373,547.1045,549.8438,551.8359,562.2949,570.2637,584.707,596.6602,608.1152,618.5742,635.5078,645.4688,658.418,656.4258,674.3555,672.3633,702.2461,714.1992,739.1016,522.1866,522.6535,523.2761,524.7546,525.6262,527.8674,530.1086,533.0969,534.6533,538.5132,541.875,545.7349,547.9761,549.8438,555.8203,564.0381,565.7813,574.248,582.7148,589.6875,598.6523,610.6055,620.5664,631.0254,644.4727,651.4453,661.4063,671.3672,682.3242,693.2813,720.1758,0,0,0,0,287.8711,296.8359,299.8242,294.8438,288.8672,283.8867,276.9141,259.9805,245.0391,226.1133,214.1602,205.6934,198.2227,192.7441,190.752,188.2617,186.2695,185.2734,185.2734,183.2813,182.2852,182.2852,181.2891,179.2969,176.5576,172.8223,170.083,170.083,170.083,171.8262,175.5615,180.293,185.2734,188.2617,190.752,191.748,191.748,193.7402,196.2305,199.7168,201.709,204.1992,209.1797,213.1641,218.1445,227.6074,251.0156,276.9141,296.8359,305.8008,317.7539,315.7617,319.7461,319.7461,319.7461,325.7227,323.7305,331.6992,0,0,0,0,0,0,0,873.5742,875.5664,883.5352,717.3431,0,717.2653,718.3081,0,0,0,0,387.9785,379.0137,379.0137,382.998,391.9629,418.3594,0,0,0,0,0,0,0,0,0,0,0,0,438.2813,434.2969,429.3164,431.3086,425.332,443.2617,0,0,0,313.1158,312.3221,501.0352,421.3477,395.9473,0,0,0,0,0,0,0,0,0,0,333.1934,325.2246,323.7305,321.4893,321.4893,323.7305,331.4502,0,0,0,0,0,0,0,0,0,0,937.3242,963.2227,0,0,1022.988,1051.875,0,0,0,0,0,0,0,0,0,0,0,0,0,0,0,0,0,0,0,0,0,0,0,0,0,0,0,0,0,0,0,0,0,0,0,0,0,0,0,867.5977,871.8311,872.9517,874.6948,876.5625,880.5469,899.2236,914.4141,935.8301,953.7598,968.2031,983.1445,1013.027,1046.895,1081.758,892.6556,893.9319,896.1731,899.1925,907.1924,919.7681,927.8613,944.7949,0,0,991.1133,1009.043,1024.98,1060.84,1069.805,1114.629,940.4681,941.6354,946.2268,955.0049,961.355,968.8257,973.4326,975.6738,983.1445,985.6348,0,0,0,0,1223.95,1216.915,1213.289,0,0,0,0,0,0,0,0,0,0,0,0,0,0,0,0,0,0,0,0,0,0,0,0,0,0,0,0,0,0,0,0,0,0,0,0,0,0,1367.637,1351.699,1315.84,1300.898,1278.984,1263.545,1232.168,1215.234,0,0,0,1163.624,1158.099,1156.091,1321.816,1279.98,1259.063,1240.137,1214.736,1189.336,1176.387,1151.982,0,0,1112.761,1102.645,0,1288.945,1252.09,1198.301,1191.328,1169.414,1140.029,1114.131,0,1081.509,1062.832,1059.097,1058.225,1049.073,1045.945,1044.529,1194.316,1153.477,1141.523,1114.131,1094.707,1079.766,1060.84,1038.179,1025.229,1018.755,1013.525,1004.249,1001.043,998.4283,996.0938,1160.449,1118.613,1084.746,1042.91,1023.984,1000.078,987.3779,973.4326,966.958,956.3745,951.4563,948.1567,944.826,942.6471,940.7016,1123.594,1078.77,1051.875,1018.008,997.5879,974.6777,948.5303,937.0752
0,0,0,501.0352,489.082,514.9805,516.9727,530.918,534.9023,551.8359,553.8281,565.7813,571.7578,588.6914,598.6523,612.5977,627.5391,643.4766,426.4059,427.0285,427.4487,427.9935,428.9584,430.6238,432.2424,436.04,439.7754,443.2617,443.2617,446.25,448.9893,451.853,456.2109,463.9307,466.9189,470.9033,475.1367,478.623,485.0977,491.0742,498.5449,507.5098,514.9805,520.957,534.4043,541.377,548.8477,558.8086,568.7695,575.7422,588.6914,601.6406,620.5664,634.5117,650.4492,663.3984,675.3516,679.3359,458.5144,459.0591,460.242,461.6895,463.3704,465.7361,467.6038,468.9734,471.6504,475.6348,477.1289,480.2417,481.3623,484.8486,491.3232,495.8057,499.541,508.7549,514.2334,516.9727,526.9336,536.8945,542.8711,551.8359,555.3223,564.7852,564.7852,0,0,0,0,0,0,0,0,0,543.3691,526.9336,0,0,0,0,0,604.8779,591.6797,587.6953,0,0,0,0,0,0,0,0,0,0,0,0,0,0,0,0,0,535.4004,538.8867,543.3691,548.8477,552.832,558.8086,570.2637,580.7227,588.6914,602.1387,613.5938,637.5,639.4922,658.418,659.4141,676.3477,682.3242,706.2305,716.1914,731.1328,745.0781,522.2644,522.7313,524.1321,524.9103,527.6184,529.7974,532.0386,533.844,536.272,539.3848,542.9956,545.1123,547.9761,555.0732,561.7969,567.2754,572.5049,581.7188,586.6992,597.6563,604.1309,620.5664,631.0254,642.4805,654.4336,662.4023,669.375,682.3242,691.2891,720.1758,0,0,0,0,283.8867,287.8711,294.8438,292.8516,290.8594,283.8867,278.9063,261.9727,246.0352,223.623,211.6699,203.2031,197.2266,191.748,189.7559,188.2617,187.2656,186.2695,185.2734,183.2813,182.2852,182.2852,181.2891,179.2969,177.3047,171.8262,169.0869,169.0869,170.083,171.8262,176.5576,182.2852,185.2734,187.2656,188.2617,189.7559,190.752,192.7441,196.2305,198.2227,201.709,204.1992,208.1836,211.6699,216.6504,227.6074,252.0117,283.8867,307.793,317.7539,325.7227,321.7383,323.7305,315.7617,313.7695,317.7539,319.7461,315.7617,313.7695,0,0,0,0,0,846.6797,861.6211,863.6133,881.543,717.1875,914.4141,926.3672,718.1213,717.2653,0,0,0,383.9941,376.5234,377.5195,383.9941,393.457,416.3672,0,0,0,0,0,0,0,0,0,0,0,489.082,443.2617,429.3164,422.3438,422.3438,420.3516,441.2695,0,0,313.2559,312.8201,312.2131,507.0117,412.3828,0,0,0,0,0,0,0,0,0,326.7188,329.707,331.4502,324.4775,323.7305,320.7422,319.9951,321.4893,331.4502,0,0,0,0,0,0,0,0,0,0,0,0,0,0,0,0,0,0,0,0,0,0,0,0,0,0,0,0,0,0,0,0,0,0,0,0,0,0,0,0,0,0,0,0,0,0,0,0,1035.938,0,0,0,849.8859,853.4033,855.6445,859.8157,869.0918,870.2124,872.4536,875.9399,885.5273,899.2236,915.4102,933.3398,948.2813,965.2148,983.1445,1009.043,1044.902,1074.785,892.5,893.9319,898.4143,901.9006,911.9238,925.6201,933.0908,945.791,957.2461,974.6777,987.1289,1001.572,1018.008,1046.895,1056.855,1094.707,1131.563,941.1685,943.9856,951.4563,955.5029,964.5923,971.4404,980.1563,983.1445,989.8682,0,0,0,0,1223.95,1215.764,1212.573,0,0,0,0,0,0,0,0,0,0,0,0,0,0,0,0,0,0,0,0,0,0,0,0,0,0,0,0,0,0,0,0,0,0,0,0,0,0,1341.738,1319.824,1300.898,1291.934,1269.023,1259.561,1232.168,1206.768,1187.344,1181.492,1169.788,1165.928,1160.885,1156.901,1336.758,1295.918,1260.059,1236.152,1211.748,1186.846,1167.422,1146.753,1130.068,1118.613,1110.458,0,1100.077,1270.02,1238.145,1204.277,1203.281,1181.367,1150.488,1121.602,1108.652,1085.991,1064.949,1059.968,1057.354,1047.797,1045.338,1251.094,1192.324,1146.504,1133.555,1105.166,1094.707,1072.793,1054.863,1033.696,1023.362,1011.658,1008.794,1002.008,998.4283,996.6385,1166.426,1132.559,1102.676,1080.762,1044.404,1028.965,1004.063,990.8643,975.6738,968.2031,955.8765,950.0244,946.7249,943.6276,941.6354,940.3903,1123.594,1067.813,1037.93,1009.043,988.623,969.1992,943.7988,934.585
0,0,0,0,0,505.0195,514.9805,528.9258,538.8867,553.8281,560.8008,569.7656,571.7578,586.6992,598.6523,608.6133,627.5391,645.4688,426.3281,426.795,427.3553,427.869,428.9584,431.2775,433.3008,436.7871,440.647,442.3901,441.5186,443.7598,446.25,448.9893,453.5962,462.4365,464.6777,470.1563,474.1406,477.627,484.1016,489.082,497.5488,506.5137,512.4902,516.9727,534.4043,541.377,551.8359,565.7813,575.7422,576.7383,588.6914,599.6484,614.5898,628.5352,648.457,661.4063,675.3516,681.3281,458.67,458.9813,460.242,461.3315,462.9346,465.1758,467.915,469.3469,472.522,477.1289,477.627,480.2417,481.9849,484.8486,489.3311,492.8174,498.7939,507.7588,515.2295,521.9531,531.416,538.3887,544.3652,546.8555,551.8359,557.8125,559.3066,0,0,0,560.614,559.1354,0,0,0,0,0,533.9063,521.9531,0,0,0,0,618.5742,596.9092,590.1855,0,0,0,0,0,0,0,0,0,0,0,0,0,0,0,0,0,524.6924,530.6689,537.8906,544.1162,548.8477,555.8203,568.7695,578.7305,588.6914,598.1543,610.6055,630.5273,632.5195,659.4141,663.3984,672.3633,680.332,698.2617,706.2305,723.1641,739.1016,743.0859,522.5757,523.743,524.4278,526.4667,528.6456,531.665,532.4121,535.4004,537.5171,540.3809,543.4937,546.8555,553.8281,558.0615,564.7852,572.5049,580.7227,584.707,593.1738,602.1387,615.5859,627.041,645.4688,653.4375,659.4141,664.3945,677.3438,684.3164,710.2148,0,0,0,0,0,290.8594,296.8359,292.8516,290.8594,283.8867,276.9141,261.9727,239.0625,222.1289,209.1797,200.7129,195.2344,190.752,187.2656,186.2695,185.2734,185.2734,184.2773,183.2813,183.2813,182.2852,181.2891,179.2969,177.3047,172.8223,170.083,170.083,170.8301,171.8262,176.5576,182.2852,186.2695,187.2656,188.2617,188.2617,189.7559,190.752,193.7402,196.2305,199.7168,201.709,205.6934,209.1797,214.1602,227.6074,258.9844,278.9063,311.7773,319.7461,329.707,321.7383,325.7227,311.7773,305.8008,305.8008,307.793,301.8164,299.8242,0,0,0,0,0,855.6445,869.5898,881.543,885.5273,717.2653,928.3594,924.375,717.8879,717.4988,0,0,0,380.5078,371.543,373.0371,374.0332,387.9785,406.4063,0,0,0,0,0,0,0,0,0,0,286.875,513.9844,455.2148,436.2891,432.3047,431.3086,429.3164,0,0,0,313.2559,312.6956,312.6956,529.9219,0,0,0,0,0,0,0,374.4067,0,0,0,328.96,329.707,320.7422,320.7422,316.7578,318.0029,317.2559,325.9717,0,0,0,0,0,0,0,0,0,0,0,0,0,0,0,0,0,0,0,0,0,0,0,0,0,0,0,0,0,0,0,0,0,0,0,0,0,0,0,0,0,0,0,0,0,0,932.3438,0,999.082,1003.066,1039.922,848.9832,849.3723,850.8508,852.345,856.2048,862.6172,866.1035,872.9517,881.792,887.7686,906.4453,924.375,944.7949,952.7637,978.1641,996.0938,1017.012,1044.902,1081.758,1101.68,894.2899,898.4143,900.3442,907.6904,921.6357,927.8613,933.8379,946.5381,958.2422,974.6777,0,1019.004,1051.875,1070.801,1102.676,1131.563,941.3397,942.7872,950.7715,953.3862,961.355,969.4482,977.168,977.168,985.6348,0,0,0,0,1219.406,1213.04,1211.639,0,0,0,0,0,0,0,0,0,0,0,0,0,0,0,0,0,0,0,0,0,0,0,0,0,0,0,0,0,0,0,0,0,0,0,0,0,0,1355.684,1326.797,1312.852,1292.93,1266.035,1254.082,1236.65,1212.495,1196.807,1187.344,1175.889,1167.733,1161.881,1157.01,1336.758,1297.91,1260.059,1229.18,1204.775,1179.873,1153.726,1136.543,1124.59,1116.248,1109.773,0,1100.154,1270.02,1224.199,1203.281,1198.301,1176.387,1146.504,1126.084,1110.645,1082.256,1065.447,1059.47,1052.684,1045.821,1044.062,1212.246,1176.387,1145.508,1130.566,1109.648,1090.723,1064.824,0,1032.949,1021.619,1011.284,1006.179,1000.825,997.6346,1193.32,1152.48,1124.59,1097.695,0,1038.926,1022.49,1001.074,988.125,977.915,971.4404,959.2383,951.8298,948.1567,943.7988,941.7444,1137.539,1110.645,1052.871,1024.98,996.5918,982.1484,962.7246,942.0557,932.3438
0,0,0,0,0,495.5566,506.5137,523.9453,538.8867,551.8359,562.793,571.7578,576.7383,584.707,596.6602,604.6289,625.5469,639.4922,426.3281,426.7172,427.4487,427.869,428.9584,430.8417,432.7405,434.7949,438.5925,440.647,441.0205,444.2578,445.752,449.4873,453.5962,460.9424,463.1836,471.6504,473.3936,477.627,485.0977,490.0781,497.5488,507.5098,513.4863,516.9727,531.416,539.8828,548.8477,560.8008,573.75,578.7305,588.6914,604.6289,622.5586,628.5352,644.4727,654.4336,661.4063,665.3906,458.3588,458.7479,460.1175,461.5182,462.9346,465.7361,470.094,471.6504,475.6348,480.2417,481.3623,482.4829,483.1055,484.8486,489.3311,491.3232,497.2998,506.0156,513.2373,520.957,531.416,540.3809,545.3613,551.8359,552.832,559.3066,562.2949,0,0,0,561.4856,560.7697,0,0,0,0,0,540.6299,529.1748,0,0,0,0,0,596.9092,584.458,0,0,0,0,0,0,0,0,0,0,0,0,0,0,0,0,0,530.6689,533.9063,539.6338,540.6299,547.1045,552.832,560.3027,570.2637,583.7109,594.1699,602.1387,621.5625,630.5273,645.4688,661.4063,672.3633,684.3164,694.2773,712.207,712.207,729.1406,733.125,522.1866,523.0737,524.2877,526.2488,528.1165,530.4199,531.3538,533.4705,536.272,539.3848,543.4937,546.8555,554.3262,558.0615,565.7813,570.7617,579.7266,583.7109,594.1699,602.1387,615.5859,628.5352,642.4805,648.457,656.4258,671.3672,679.3359,686.3086,708.2227,0,0,0,0,0,288.8672,292.8516,290.8594,292.8516,287.8711,281.8945,264.9609,242.0508,220.6348,208.1836,198.2227,192.7441,189.7559,186.2695,185.2734,184.2773,184.2773,183.2813,182.2852,181.2891,181.2891,179.2969,178.3008,176.5576,173.5693,171.8262,170.8301,171.8262,173.5693,178.3008,182.2852,184.2773,185.2734,187.2656,187.2656,189.7559,191.748,193.7402,196.2305,199.7168,201.709,204.1992,208.1836,211.6699,223.623,254.0039,287.8711,313.7695,323.7305,331.6992,329.707,321.7383,315.7617,315.7617,315.7617,315.7617,313.7695,309.7852,296.8359,0,0,0,0,839.707,850.6641,875.5664,869.5898,914.4141,899.4727,899.4727,908.4375,904.4531,0,0,0,374.0332,368.0566,368.0566,373.0371,387.9785,407.4023,0,0,0,0,0,0,0,0,0,0,287.2641,515.9766,459.1992,438.2813,436.2891,432.3047,431.3086,471.1523,0,0,312.9602,312.5711,312.6956,529.9219,0,0,0,0,0,0,0,0,0,0,0,324.4775,323.7305,318.75,318.0029,315.3882,316.0107,315.3882,323.7305,0,0,0,0,0,0,0,0,0,0,0,0,0,0,0,0,0,0,0,0,0,0,0,0,0,0,0,0,0,0,0,0,0,806.2756,809.6375,810.9448,0,809.6375,812.3767,822.8979,829.3726,839.209,862.6172,869.5898,894.4922,909.9316,927.3633,951.2695,987.1289,993.1055,1028.965,848.9832,849.2944,850.4617,851.4734,856.2048,860.9363,867.5977,875.3174,885.5273,891.5039,911.4258,925.3711,940.8105,948.2813,972.1875,983.1445,1011.035,1040.918,1079.766,1101.68,894.679,900.3442,900.6555,907.1924,921.0132,927.8613,930.1025,941.3086,951.2695,966.709,0,1007.549,1044.902,1067.813,1104.668,1145.508,942.1024,943.6276,950.7715,953.0127,958.7402,968.8257,980.1563,981.6504,993.6035,0,0,0,0,1217.164,1212.573,0,0,0,0,0,0,0,0,0,0,0,0,0,0,0,0,0,0,0,0,0,0,0,0,0,0,0,0,0,0,0,0,0,0,0,0,0,0,0,1377.598,1341.738,1310.859,1284.961,1256.572,1234.16,1223.203,1206.021,1187.344,1180.994,1172.402,1162.441,1158.955,1156.683,1334.766,1293.926,1254.082,1216.23,1184.355,1163.438,1142.52,1132.061,1121.726,1114.878,1107.843,1101.602,1298.906,1258.066,1212.246,1198.301,1191.328,1170.41,1147.998,1128.574,1110.645,1084.497,1069.929,1058.599,1050.319,1045.338,1245.117,1190.332,1165.43,1136.543,1118.613,1105.166,1082.256,1058.848,0,1032.202,1018.755,1010.039,1004.561,1000.607,997.6346,996.0938,1160.449,1126.582,1090.723,0,1030.957,1011.533,997.3389,984.1406,975.6738,970.1953,959.2383,951.0828,948.468,943.114,941.0129,1125.586,1098.691,1049.883,1016.016,991.1133,974.6777,958.2422,942.0557,933.0908
0,0,0,0,0,493.0664,509.502,525.9375,539.8828,553.8281,563.7891,569.7656,571.7578,572.7539,592.6758,598.6523,618.5742,643.4766,426.4838,426.4838,427.1841,427.5421,428.5071,430.4059,433.3008,434.4836,438.5925,439.4019,441.5186,443.2617,445.2539,450.1099,453.5962,458.7012,463.1836,470.9033,473.3936,481.3623,488.0859,491.0742,498.5449,506.5137,512.4902,516.9727,531.416,541.377,548.8477,563.7891,575.7422,580.7227,585.7031,603.6328,610.6055,620.5664,634.5117,650.4492,661.4063,675.3516,458.8257,458.9035,460.1175,461.1603,462.7167,464.1174,468.6621,470.4675,472.8955,476.6309,480.2417,480.8643,483.728,484.8486,488.0859,490.0781,495.8057,502.0313,509.502,515.9766,522.9492,530.4199,534.9023,544.3652,551.8359,559.3066,563.291,0,0,0,560.9409,560.614,559.8514,0,0,0,0,553.8281,544.1162,0,0,0,0,0,0,585.0806,570.8862,563.9758,0,0,0,0,0,0,0,0,0,0,0,0,0,0,0,530.6689,533.9063,537.1436,539.6338,546.1084,550.8398,557.8125,567.7734,577.2363,584.707,596.6602,609.6094,622.5586,639.4922,654.4336,663.3984,678.3398,692.2852,704.2383,708.2227,727.1484,731.1328,522.0309,522.887,523.6185,525.2682,527.8674,528.9258,530.4199,532.7234,535.0269,538.5132,543.9917,545.7349,553.0811,557.3145,564.0381,566.5283,573.252,580.7227,588.6914,597.6563,612.5977,626.0449,635.5078,647.4609,656.4258,661.4063,674.3555,686.3086,706.2305,0,0,0,0,0,285.8789,292.8516,292.8516,292.8516,287.8711,278.9063,263.9648,239.0625,216.6504,203.2031,197.2266,191.748,187.2656,185.2734,184.2773,182.2852,182.2852,181.2891,180.293,179.2969,180.293,177.3047,177.3047,175.5615,173.5693,171.8262,171.8262,172.8223,174.5654,178.3008,181.2891,184.2773,184.2773,186.2695,186.2695,188.2617,190.752,193.7402,196.2305,198.2227,200.7129,203.2031,206.6895,209.1797,222.1289,248.0273,285.8789,313.7695,323.7305,333.6914,327.7148,329.707,317.7539,309.7852,307.793,313.7695,313.7695,307.793,303.8086,0,0,0,823.7695,833.7305,841.6992,865.6055,863.6133,906.4453,893.4961,895.4883,916.4063,914.4141,0,0,0,379.0137,364.5703,365.5664,373.0371,387.9785,0,0,0,0,0,793.8867,0,0,0,0,0,0,287.2641,457.207,440.2734,434.2969,429.3164,431.3086,481.1133,0,0,312.2131,312.1042,312.2131,535.8984,0,0,0,0,0,0,0,0,0,0,0,320.7422,319.9951,316.0107,316.0107,313.5205,313.5205,311.7773,316.7578,0,0,0,0,0,0,0,0,0,0,0,0,0,0,0,0,0,0,0,0,0,0,0,0,0,0,862.1191,901.4648,912.4219,943.3008,981.1523,801.7932,802.1823,803.6609,806.5247,808.1122,809.0149,810.26,815.5518,822.3999,828.1274,836.2207,853.1543,860.625,877.5586,900.4688,921.3867,937.3242,960.2344,972.1875,997.0898,1031.953,848.7497,849.7925,851.4734,855.9247,859.1309,863.8623,871.8311,884.0332,892.5,911.4258,921.8848,932.3438,938.3203,957.7441,974.1797,1001.074,1032.949,1083.75,892.9669,896.391,904.0173,904.3909,910.4297,919.1455,925.6201,927.1143,938.8184,951.2695,966.709,0,0,1058.848,1080.762,1120.605,940.8572,942.4915,943.7988,949.7131,950.3979,0,968.8257,975.6738,979.4092,989.1211,0,0,0,0,1217.164,1212.682,0,0,0,0,0,0,0,0,0,0,0,0,0,0,0,0,0,0,0,0,0,0,0,0,0,0,0,0,0,0,0,0,0,0,0,0,0,0,0,1379.59,1341.738,1310.859,1280.977,1251.592,1229.678,1216.23,1200.791,1183.359,1178.13,1167.36,1159.982,1157.648,1156.091,1321.816,1287.949,1250.098,1203.779,1176.387,1154.722,1135.049,1130.068,1120.107,1113.135,1106.38,1101.866,1292.93,1262.051,1215.234,1206.27,1191.328,1163.438,1142.52,1118.115,1099.937,1077.773,1067.065,1055.424,1049.572,1045.229,1043.984,1194.316,1178.379,1140.527,1115.625,1097.197,1079.766,0,0,1028.467,1015.518,1005.806,1002.506,999.0509,996.7941,1177.383,1152.48,1115.625,1082.754,1063.828,1034.941,1012.529,1000.078,987.3779,976.4209,968.8257,958.2422,949.4019,946.2268,941.9778,1143.516,1104.668,1074.785,1034.941,1004.561,983.1445,969.1992,954.2578,941.3086,934.585
0,0,0,0,0,483.1055,505.0195,519.9609,534.9023,544.8633,558.8086,565.7813,569.7656,576.7383,596.6602,606.6211,620.5664,645.4688,426.4059,426.5616,427.1063,427.76,429.1296,431.2775,433.5809,435.1062,438.219,439.0283,439.7754,442.8882,445.2539,449.4873,453.5962,458.2031,460.9424,468.4131,474.1406,483.3545,493.0664,497.5488,503.0273,507.5098,510.9961,515.9766,532.9102,544.3652,551.8359,568.7695,578.7305,581.7188,580.7227,601.6406,606.6211,612.5977,630.5273,648.457,657.4219,675.3516,458.9813,459.137,460.1175,460.6778,462.0941,463.1525,466.9812,469.3469,472.8955,476.1328,479.7437,480.2417,483.1055,484.8486,487.3389,488.584,494.3115,500.2881,507.7588,515.9766,522.9492,530.4199,536.8945,545.3613,546.8555,556.8164,564.7852,0,0,0,560.4428,559.9915,559.7269,560.614,0,0,0,0,548.8477,539.6338,527.6807,0,0,0,0,0,0,562.5439,0,0,0,0,0,0,0,0,0,0,0,0,0,0,0,0,532.1631,535.4004,537.8906,542.373,547.1045,552.832,563.291,571.2598,583.7109,599.1504,609.6094,618.5742,626.543,642.4805,650.4492,668.3789,686.3086,688.3008,698.2617,712.207,721.1719,745.0781,522.5757,523.494,525.0815,527.1204,528.9258,531.0425,533.0969,536.272,538.8867,544.6143,548.5986,553.0811,556.5674,561.7969,564.0381,569.7656,578.9795,590.6836,597.6563,612.5977,630.0293,632.5195,648.457,659.4141,669.375,681.3281,691.2891,712.207,0,0,0,0,0,279.9023,283.8867,288.8672,288.8672,283.8867,276.9141,259.9805,239.0625,213.1641,201.709,195.2344,189.7559,186.2695,185.2734,183.2813,181.2891,182.2852,181.2891,180.293,179.2969,179.2969,177.3047,176.5576,174.5654,173.5693,171.8262,171.8262,173.5693,174.5654,176.5576,180.293,182.2852,182.2852,185.2734,186.2695,187.2656,189.7559,191.748,192.7441,196.2305,198.2227,203.2031,206.6895,211.6699,223.623,246.0352,281.8945,309.7852,323.7305,331.6992,331.6992,333.6914,321.7383,313.7695,309.7852,313.7695,311.7773,311.7773,307.793,0,0,0,823.7695,830.7422,827.7539,859.6289,861.6211,883.5352,871.582,904.4531,914.4141,910.4297,881.543,0,0,369.0527,353.6133,353.6133,358.0957,382.998,0,0,0,0,783.9258,798.3691,0,0,0,0,0,287.4976,494.0625,445.2539,438.2813,434.2969,420.3516,431.3086,0,0,0,311.1703,311.0925,311.326,525.9375,0,0,0,0,0,0,0,0,0,0,0,0,323.7305,316.7578,316.7578,313.5205,312.8979,311.7773,318.0029,0,0,0,0,0,0,0,0,0,0,0,0,0,0,0,0,0,0,804.0967,809.3262,814.0576,828.252,827.2559,855.6445,861.123,855.6445,856.6406,876.5625,882.5391,911.4258,953.2617,996.0938,801.6376,803.194,806.0266,807.0227,809.6375,809.6375,814.8047,820.2832,826.3843,829.9951,845.4346,852.1582,871.084,895.4883,923.3789,933.3398,953.2617,958.2422,983.1445,1013.027,1049.883,849.7925,851.8002,856.8274,861.7456,866.6016,872.9517,884.0332,894.9902,908.4375,914.4141,926.3672,930.8496,949.7754,968.2031,1004.063,1038.926,1091.719,893.1226,897.0135,903.6438,904.3909,909.0601,917.4023,924.873,0,0,0,0,0,1021.992,1051.875,1072.793,1106.66,940.6238,941.9778,942.7872,946.2268,0,0,0,980.9033,981.6504,0,0,0,0,0,1215.981,1213.289,0,0,0,0,0,0,0,0,0,0,0,0,0,0,0,0,0,0,0,0,0,0,0,0,0,0,0,0,0,0,0,0,0,0,0,0,0,0,0,1381.582,1339.746,1312.852,1275,1247.607,1225.693,1210.503,1193.818,1180.994,1174.893,1166.239,1158.955,1157.01,1155.858,1315.84,1276.992,1237.148,1191.826,1163.438,1151.982,1132.061,1127.578,1117.119,1110.831,1104.201,1101.602,1296.914,1276.992,1230.176,1215.234,1188.34,1160.449,1138.535,1117.119,1098.94,1075.034,1065.447,1053.618,1046.863,1044.684,1249.102,1196.309,1184.355,1150.488,1124.59,1089.727,1071.797,1047.393,1029.961,1019.253,1012.156,1003.938,1002.008,999.5801,996.9498,1185.352,1154.473,0,1084.746,0,1030.957,1006.055,995.3467,983.1445,973.4326,966.3354,959.2383,948.7793,944.6082,941.1685,1129.57,1082.754,1060.84,1024.98,996.5918,972.6855,959.2383,943.7988,930.1025,924.375
488.0859,483.1055,0,0,0,475.6348,508.0078,522.9492,538.8867,543.8672,556.8164,563.7891,574.7461,582.7148,604.6289,614.5898,625.5469,643.4766,649.4531,426.4059,426.795,427.4487,428.367,430.2191,431.9934,433.8611,436.4136,438.219,439.7754,442.3901,444.2578,449.4873,452.3511,457.4561,462.4365,470.1563,473.3936,482.3584,492.0703,496.5527,498.5449,508.5059,510.9961,518.4668,531.416,546.8555,551.8359,568.7695,573.75,576.7383,578.7305,603.6328,604.6289,616.582,634.5117,652.4414,657.4219,679.3359,459.0591,459.4171,460.1175,460.8334,462.0941,462.7167,465.7361,468.6621,472.522,475.6348,478.623,480.2417,482.4829,484.8486,486.7163,489.3311,493.5645,500.2881,506.0156,515.2295,519.9609,526.9336,535.8984,546.8555,548.8477,560.8008,570.2637,0,0,0,559.8514,559.7269,560.1471,561.2988,0,0,0,0,537.8906,535.4004,530.6689,0,0,0,0,0,0,564.505,0,0,0,0,0,0,0,0,0,0,0,0,0,0,0,534.6533,533.9063,537.8906,542.373,546.1084,548.8477,554.8242,563.291,570.2637,582.2168,594.1699,605.127,613.5938,621.5625,634.5117,649.4531,661.4063,672.3633,688.3008,700.2539,710.2148,725.1563,743.0859,522.3422,523.494,524.7546,526.6846,528.6456,531.3538,533.4705,537.5171,539.3848,543.4937,547.9761,551.8359,552.334,558.8086,563.291,566.5283,575.2441,588.6914,597.6563,608.1152,623.0566,631.0254,637.002,656.4258,667.3828,679.3359,695.2734,716.1914,732.1289,0,0,0,0,281.8945,281.8945,285.8789,285.8789,281.8945,273.9258,255.9961,233.0859,213.1641,199.7168,195.2344,189.7559,186.2695,183.2813,181.2891,179.2969,179.2969,179.2969,178.3008,178.3008,178.3008,176.5576,175.5615,173.5693,171.8262,170.083,170.083,170.8301,171.8262,175.5615,178.3008,181.2891,182.2852,185.2734,186.2695,187.2656,188.2617,189.7559,192.7441,193.7402,197.2266,200.7129,205.6934,211.6699,224.6191,248.0273,274.9219,303.8086,313.7695,325.7227,325.7227,327.7148,317.7539,313.7695,309.7852,317.7539,323.7305,331.6992,331.6992,0,0,0,0,835.7227,835.7227,871.582,877.5586,897.4805,908.4375,928.3594,928.3594,0,0,0,0,369.0527,352.6172,350.625,357.0996,374.0332,0,0,0,0,767.7393,785.918,0,0,0,0,0,0,502.0313,445.2539,441.2695,434.2969,413.3789,423.3398,0,0,0,311.326,311.4816,311.8085,311.2482,0,0,0,0,0,0,0,0,0,0,0,0,0,312.8979,312.8979,311.1548,311.1548,310.0342,313.5205,0,0,0,0,0,0,0,0,0,0,0,757.6538,758.6966,760.1596,761.7627,769.7314,774.4629,790.1514,797.6221,809.3262,813.0615,820.7813,821.7773,837.2168,843.1934,840.7031,853.1543,872.0801,885.5273,909.4336,943.3008,983.1445,801.3263,802.2913,804.7504,806.7737,810.26,810.26,817.4194,824.6411,829.9951,833.2324,847.9248,854.1504,866.6016,889.5117,926.3672,932.3438,951.2695,948.2813,972.1875,999.082,1035.938,849.1388,851.629,857.1387,860.9363,868.5938,876.5625,885.5273,890.7568,900.9668,906.4453,917.4023,922.8809,942.3047,968.2031,998.0859,1036.934,1083.75,893.2782,895.8151,900.6555,900.3442,904.3909,906.4453,912.9199,911.9238,927.8613,0,0,0,1036.934,1056.855,1067.813,1104.668,1147.5,941.2463,942.4915,945.7288,949.0906,957.2461,970.1953,974.9268,981.6504,0,0,0,0,0,0,0,1212.682,0,0,0,0,0,0,0,0,0,0,0,0,0,0,0,0,0,0,0,0,0,0,0,0,0,0,0,0,0,0,0,0,0,0,0,0,0,0,1392.539,1355.684,1317.832,1272.012,1244.121,1218.223,1203.281,1190.83,1180.994,1172.402,1163.936,1157.508,1156.247,1354.688,1307.871,1276.992,1252.09,1195.811,0,1154.722,1136.543,1125.71,1115.75,1110.146,1103.765,1101.228,1100.154,1294.922,1240.137,1213.242,1189.336,1151.982,1127.578,1108.652,1091.719,1068.809,1060.466,1051.75,1046.863,1044.684,1249.102,1200.293,1176.387,1151.484,1125.586,1095.703,1072.793,1053.867,1035.19,1023.984,1014.023,1005.806,1003.938,1001.261,997.8836,996.2494,1173.398,0,1082.754,1058.35,1027.471,994.3506,985.6348,975.6738,964.5923,957.7441,952.5769,945.0439,942.6471,940.6238,1123.594,1080.762,1058.848,1036.934,1004.561,984.6387,966.709,950.2734,930.8496,922.3828
485.4712,483.1055,0,0,0,466.6699,498.5449,516.9727,528.9258,536.8945,549.8438,560.8008,571.7578,576.7383,598.6523,610.6055,616.582,633.5156,645.4688,649.4531,426.8729,427.6511,428.9584,431.2775,433.3008,435.1062,437.0984,438.5925,440.2734,443.2617,446.25,453.5962,455.4639,458.2031,462.4365,469.1602,470.1563,477.627,487.0898,493.0664,497.5488,506.5137,513.4863,520.957,532.9102,546.8555,549.8438,562.793,568.7695,571.7578,575.7422,597.6563,603.6328,616.582,634.5117,648.457,654.4336,679.3359,458.9813,459.3237,460.1175,461.0046,461.8762,462.0941,464.3665,466.6699,470.4675,472.522,476.6309,477.627,480.2417,483.1055,487.3389,490.0781,495.8057,502.0313,509.502,518.9648,526.9336,536.8945,546.8555,557.8125,557.8125,566.2793,570.2637,0,0,0,559.9915,559.7269,559.8514,561.2988,0,0,0,0,0,532.9102,530.6689,0,0,0,0,0,568.2715,565.6567,559.7269,0,0,0,0,0,0,0,0,0,0,0,0,0,0,536.3965,537.8906,543.3691,544.1162,546.1084,547.8516,552.832,562.2949,570.2637,582.2168,592.6758,602.1387,610.6055,616.582,627.5391,635.5078,652.4414,672.3633,684.3164,696.2695,708.2227,733.125,522.0309,522.8091,523.6185,524.7546,526.6846,528.1165,531.0425,534.2175,537.5171,539.8828,543.4937,547.9761,550.4663,554.3262,558.0615,563.291,564.7852,576.9873,586.6992,598.6523,611.6016,621.5625,631.0254,639.9902,653.4375,662.4023,682.3242,702.2461,718.1836,738.1055,0,0,0,0,271.9336,278.9063,285.8789,287.8711,281.8945,273.9258,252.0117,233.0859,209.1797,198.2227,192.7441,188.2617,184.2773,181.2891,180.293,177.3047,177.3047,179.2969,178.3008,178.3008,178.3008,175.5615,173.5693,172.8223,170.8301,169.0869,169.0869,169.0869,170.083,172.8223,175.5615,179.2969,182.2852,185.2734,186.2695,188.2617,188.2617,189.7559,191.748,193.7402,197.2266,200.7129,205.6934,210.1758,220.6348,243.0469,269.9414,294.8438,309.7852,319.7461,325.7227,327.7148,327.7148,319.7461,315.7617,321.7383,329.707,335.6836,0,0,0,0,828.75,827.7539,825.7617,850.6641,859.6289,879.5508,895.4883,928.3594,717.3431,0,0,0,423.3398,368.0566,352.6172,350.625,351.6211,369.0527,0,0,0,0,761.0156,0,0,0,0,0,0,0,491.0742,443.2617,440.2734,432.3047,415.3711,427.3242,0,0,0,311.326,311.4816,311.4816,310.8591,0,0,0,0,0,0,0,0,0,0,0,0,0,314.7656,311.7773,309.5361,309.5361,309.5361,311.7773,0,0,0,0,0,0,0,921.3867,931.3477,937.3242,941.3086,757.576,758.5721,760.7043,762.9456,769.2957,772.5952,784.2993,793.1396,805.8398,811.0693,815.8008,818.7891,830.2441,834.7266,839.209,859.6289,876.5625,896.4844,919.3945,953.2617,981.1523,801.2485,801.7932,803.8165,805.155,810.26,809.9487,817.793,824.0186,827.5049,829.3726,839.209,847.9248,860.625,888.0176,923.3789,940.3125,961.2305,965.2148,989.1211,1009.043,1033.945,849.2944,851.8002,856.8274,862.6172,870.7104,875.9399,883.2861,891.5039,896.4844,899.9707,906.4453,912.4219,928.8574,959.2383,996.0938,1034.941,1070.801,893.1226,894.8346,898.4143,899.7528,903.2703,902.959,909.9316,913.5425,0,0,986.1328,1003.066,1036.934,1044.902,1058.848,1092.715,1129.57,940.7794,942.2269,945.0439,948.468,957.7441,970.1953,973.4326,980.1563,0,0,0,0,0,0,0,1212.277,0,0,0,0,0,0,0,0,0,0,0,0,0,0,0,0,0,0,0,0,0,0,0,0,0,0,0,0,0,0,0,0,0,0,0,0,0,0,1386.563,1347.715,1305.879,1266.035,1233.164,0,0,1185.352,1173.896,1169.414,1160.636,1156.792,1155.858,1338.75,1289.941,1268.027,1242.129,1196.807,0,1153.726,1138.784,1124.59,1114.006,1110.831,1103.765,1100.621,1099.765,1284.961,1236.152,1208.262,1194.316,1148.994,1126.084,1101.68,1090.225,1068.809,1059.968,1051.439,1048.202,1044.933,1044.062,0,0,1145.508,1121.602,1085.742,1070.303,1053.12,1035.938,1024.607,1016.016,1006.553,1004.249,1001.261,997.4167,1185.352,1168.418,1120.605,1076.777,1060.84,1032.451,1001.074,988.125,979.4092,966.3354,957.7441,950.0244,943.114,940.9351,1127.578,1096.699,1076.777,1063.828,1047.891,1004.561,983.1445,959.2383,943.7988,924.375,918.5229
481.3623,478.623,0,0,0,461.1914,495.5566,513.9844,525.9375,534.9023,546.8555,556.8164,571.7578,578.7305,598.6523,610.6055,612.5977,627.5391,637.5,645.4688,426.8729,427.76,429.2853,431.7444,434.1724,435.7288,437.8455,437.8455,439.7754,443.7598,445.2539,450.6079,455.4639,458.7012,461.6895,466.1719,470.9033,475.8838,483.3545,488.0859,496.5527,503.0273,510,518.4668,532.9102,545.8594,557.8125,573.75,578.7305,585.7031,590.6836,603.6328,606.6211,628.5352,642.4805,659.4141,669.375,458.4366,459.0591,459.4171,459.993,460.6778,461.3315,461.3315,462.9346,464.6155,467.915,470.094,475.6348,477.627,480.2417,483.728,488.0859,490.5762,497.2998,504.5215,510.498,519.9609,525.9375,532.4121,542.8711,550.3418,554.3262,560.8008,567.2754,0,0,0,559.3533,559.0265,560.1471,560.7697,562.7618,0,0,0,0,0,0,0,0,0,0,0,572.5049,566.9019,0,0,0,0,0,0,0,0,0,0,0,0,0,0,0,534.6533,532.1631,540.6299,543.3691,547.1045,550.8398,555.8203,564.2871,571.2598,580.7227,591.1816,602.1387,609.6094,615.5859,626.543,635.5078,650.4492,667.3828,682.3242,700.2539,716.1914,731.1328,522.0309,522.887,523.385,524.4278,525.6262,526.2488,529.4861,532.7234,536.6455,538.5132,541.875,545.1123,546.8555,551.0889,556.5674,561.0498,564.7852,573.252,583.7109,595.166,608.1152,619.0723,626.0449,632.5195,645.4688,656.4258,672.3633,690.293,708.2227,728.1445,0,0,0,0,0,279.9023,283.8867,281.8945,278.9063,269.9414,252.0117,220.6348,205.6934,196.2305,191.748,187.2656,183.2813,181.2891,178.3008,177.3047,178.3008,180.293,179.2969,180.293,179.2969,174.5654,172.8223,170.8301,169.0869,167.3438,167.3438,168.3398,169.0869,170.8301,174.5654,179.2969,182.2852,185.2734,187.2656,188.2617,189.7559,188.2617,190.752,192.7441,196.2305,198.2227,204.1992,208.1836,222.1289,242.0508,266.9531,292.8516,307.793,317.7539,321.7383,325.7227,317.7539,313.7695,313.7695,317.7539,321.7383,329.707,0,0,0,0,828.75,822.7734,825.7617,841.6992,855.6445,873.5742,899.4727,926.3672,0,0,0,0,434.2969,376.5234,355.6055,354.6094,351.6211,359.0918,0,0,0,0,0,0,0,0,0,0,0,0,0,443.2617,440.2734,432.3047,415.3711,427.3242,0,0,0,311.0925,311.326,311.2482,310.9369,0,0,0,0,0,0,0,0,0,0,0,0,0,0,316.0107,311.1548,310.6567,308.9136,308.9136,0,0,835.2246,843.6914,849.668,864.6094,888.5156,911.4258,919.3945,917.4023,935.332,757.0313,757.7316,758.9456,761.109,765.8093,769.2957,777.4512,786.9141,798.3691,802.3535,810.3223,813.0615,821.7773,830.2441,834.7266,851.6602,870.5859,891.5039,916.4063,947.2852,971.1914,1008.047,801.0928,802.4002,803.6609,808.1122,808.7036,816.4233,821.9019,825.7617,828.75,837.7148,846.1816,856.8896,879.5508,914.4141,929.3555,951.2695,963.2227,993.1055,995.0977,1017.012,848.8275,851.0065,854.5862,861.3721,868.0957,868.0957,875.9399,883.2861,887.7686,895.7373,912.4219,918.8965,932.3438,960.7324,991.1133,0,0,893.5272,896.5778,900.033,901.5894,903.6438,901.9006,908.562,911.9238,0,959.2383,992.1094,1009.043,1044.902,1042.91,1061.836,1088.73,1116.621,1147.5,941.5265,943.6276,946.7249,955.5029,965.8374,967.5806,970.6934,0,0,0,0,0,1214.207,1213.289,1211.873,0,0,0,0,0,0,0,0,0,0,0,0,0,0,0,0,0,0,0,0,0,0,0,0,0,0,0,0,0,0,0,0,0,0,0,0,0,1211.25,1367.637,1332.773,1305.879,1266.035,1232.168,1214.238,0,1182.737,1173.896,1168.542,1160.418,1157.803,1155.936,1327.793,1287.949,1271.016,1239.141,1206.27,1165.43,1158.457,1137.29,1120.107,1109.088,1107.22,1101.866,1100.232,1298.906,1294.922,1250.098,1217.227,1196.309,1152.979,1117.119,1097.197,1085.244,1065.945,1056.606,1049.572,1046.537,1044.373,1241.133,0,0,0,1118.613,1088.232,1071.797,1050.132,1035.19,1022.117,1015.02,1005.183,1004.249,1001.759,997.8836,1177.383,1162.441,1113.633,1074.785,1060.84,1037.432,1005.059,987.3779,976.4209,965.8374,955.8765,947.5653,942.3514,940.3903,1110.645,1080.762,1070.801,1056.855,1044.902,999.082,978.6621,953.2617,939.5654,921.0132,915.1611
481.9849,478.125,0,0,0,462.1875,493.0664,512.4902,523.9453,531.9141,544.8633,556.8164,571.7578,586.6992,602.6367,614.5898,616.582,629.5313,637.5,426.4838,426.9507,428.2425,429.8145,431.7444,432.7405,435.1062,436.4136,437.0984,438.5925,444.2578,446.748,451.2305,457.4561,460.9424,463.1836,465.4248,469.1602,473.3936,480.3662,488.0859,498.5449,505.0195,510.9961,518.4668,525.9375,539.8828,549.8438,565.7813,573.75,583.7109,590.6836,604.6289,614.5898,636.5039,648.457,659.4141,669.375,458.3588,458.8257,459.3237,459.8685,460.8334,461.5182,462.2809,463.8684,466.3586,469.7205,471.2769,475.1367,478.125,479.7437,483.728,488.584,493.5645,502.7783,512.2412,520.957,533.9063,542.8711,546.8555,556.8164,557.8125,556.8164,560.8008,564.7852,0,0,0,559.6024,559.2444,559.9915,560.7697,562.1082,0,0,0,0,0,0,0,0,0,0,0,571.2598,567.8979,562.1082,0,0,0,0,0,0,0,0,0,0,0,0,0,0,535.4004,531.416,537.1436,539.6338,543.3691,545.1123,553.8281,563.291,571.2598,582.2168,596.6602,602.1387,612.5977,621.5625,629.5313,634.5117,650.4492,659.4141,672.3633,694.2773,712.207,731.1328,522.1088,523.1671,523.6185,524.1321,525.0815,526.0309,527.6184,531.0425,534.6533,537.1436,540.3809,544.6143,549.2212,553.0811,558.0615,564.7852,567.2754,575.9912,587.6953,595.166,606.6211,616.582,626.0449,631.0254,644.4727,659.4141,674.3555,691.2891,706.2305,730.1367,0,0,0,0,0,273.9258,278.9063,278.9063,274.9219,264.9609,243.0469,220.6348,203.2031,193.7402,189.7559,185.2734,181.2891,180.293,177.3047,176.5576,178.3008,180.293,180.293,180.293,179.2969,174.5654,171.8262,170.8301,169.0869,168.3398,168.3398,167.3438,168.3398,170.083,172.8223,176.5576,181.2891,184.2773,186.2695,187.2656,188.2617,188.2617,189.7559,191.748,195.2344,196.2305,200.7129,205.6934,216.6504,228.6035,259.9805,281.8945,301.8164,311.7773,317.7539,319.7461,319.7461,313.7695,317.7539,315.7617,319.7461,0,0,0,0,0,825.7617,818.7891,833.7305,851.6602,865.6055,861.6211,0,0,0,0,0,0,0,369.0527,359.0918,355.6055,352.6172,363.5742,0,0,0,0,0,0,0,0,0,0,0,0,0,443.2617,429.3164,420.3516,408.3984,420.3516,0,0,0,539.8828,311.0925,311.0925,311.0147,0,0,0,0,0,0,0,0,0,0,0,0,0,0,314.1431,309.5361,308.9136,306.7969,307.9175,0,0,825.2637,835.2246,842.6953,859.6289,872.5781,895.4883,907.4414,915.4102,941.3086,757.3425,758.2452,759.0701,760.7043,764.2841,768.175,773.5913,781.9336,791.6455,798.3691,804.8438,811.0693,820.7813,830.2441,834.7266,855.6445,873.5742,893.4961,917.4023,947.2852,971.1914,1012.031,801.4041,802.7737,803.9877,807.5519,808.1122,814.3066,819.2871,823.5205,828.75,840.7031,851.4111,864.6094,879.5508,907.4414,924.375,937.3242,955.2539,991.1133,1001.074,1019.004,849.2166,851.0065,853.6212,861.3721,868.5938,869.0918,876.5625,883.2861,886.2744,893.9941,906.4453,917.4023,934.834,956.748,988.125,1021.992,0,892.5,894.2899,896.1731,897.4493,900.6555,900.9668,909.4336,915.6592,942.0557,962.7246,1003.066,1013.027,1044.902,1042.91,0,1074.785,1104.668,1131.563,940.8572,942.6471,946.4758,952.5769,961.853,968.2031,974.1797,972.1875,0,0,0,0,1213.164,1213.04,1211.795,0,0,0,0,0,0,0,0,0,0,0,0,0,0,0,0,0,0,0,0,0,0,0,0,0,0,0,0,0,0,0,0,0,0,0,0,0,1400.508,1355.684,1324.805,1295.918,1264.541,1231.172,1209.507,0,1180.371,1171.531,1166.613,1160.636,1158.426,1155.936,1325.801,1277.988,1257.07,1231.172,1203.779,1168.418,1159.453,1136.543,1118.115,1108.154,1105.104,1101.01,1298.906,1288.945,1270.02,1228.184,1196.309,1170.41,1137.539,1107.656,1090.225,1082.256,1064.949,1057.354,1049.323,1046.085,1044.451,1233.164,1180.371,1164.434,1135.547,1112.637,1086.738,1068.311,1052.124,1035.938,1024.607,1016.016,1007.238,1004.561,1003.066,997.8836,1171.406,1142.52,1094.707,1062.832,1049.385,1030.957,1006.055,988.125,975.6738,965.2148,955.5029,949.4019,943.2697,940.6238,1123.594,1094.707,1082.754,1072.793,1060.84,1006.055,981.1523,950.2734,935.332,918.0249,909.4336
476.6309,474.7632,0,0,0,457.207,493.0664,516.9727,531.9141,538.8867,556.8164,563.7891,582.7148,590.6836,608.6133,612.5977,618.5742,625.5469,637.5,426.4059,427.0285,427.9935,429.6432,431.0596,432.7405,434.4836,436.7871,437.0984,440.2734,445.752,448.3667,452.3511,459.4482,461.6895,463.9307,466.1719,469.1602,472.6465,480.3662,489.082,499.541,505.0195,512.4902,518.4668,523.4473,531.416,548.8477,563.7891,575.7422,588.6914,601.6406,612.5977,620.5664,640.4883,654.4336,665.3906,677.3438,458.5922,458.9813,459.2303,459.635,460.6778,461.6895,462.7167,464.6155,466.9812,470.094,472.1484,476.6309,480.8643,484.2261,489.3311,495.0586,500.2881,510.498,519.9609,526.9336,539.3848,548.8477,551.8359,563.291,567.2754,568.7695,573.252,576.2402,0,0,0,559.1354,559.2444,559.7269,560.614,561.7035,563.7268,0,0,0,0,0,0,0,0,0,0,0,0,0,0,0,0,0,0,0,0,0,0,0,0,0,0,0,539.6338,531.416,535.4004,538.8867,542.373,544.1162,552.832,560.3027,568.7695,577.2363,589.6875,600.6445,612.5977,622.5586,632.5195,644.4727,652.4414,667.3828,682.3242,690.293,712.207,725.1563,521.9531,522.5757,523.1671,523.743,524.7546,525.2682,526.6846,531.0425,534.2175,536.6455,540.8789,543.9917,546.8555,548.5986,554.3262,560.3027,567.2754,573.252,585.7031,589.6875,600.6445,611.6016,620.5664,627.041,637.002,653.4375,671.3672,686.3086,704.2383,734.1211,761.0156,0,0,0,0,269.9414,276.9141,274.9219,266.9531,258.9844,237.5684,216.6504,200.7129,191.748,187.2656,184.2773,180.293,178.3008,176.5576,174.5654,177.3047,178.3008,178.3008,178.3008,177.3047,173.5693,171.8262,170.8301,169.0869,167.3438,167.3438,166.5967,168.3398,170.083,171.8262,175.5615,180.293,183.2813,184.2773,185.2734,185.2734,185.2734,186.2695,188.2617,191.748,192.7441,197.2266,203.2031,211.6699,227.6074,255.9961,276.9141,297.832,305.8008,311.7773,311.7773,311.7773,311.7773,315.7617,317.7539,321.7383,0,0,0,0,0,0,807.832,0,0,0,0,0,0,0,0,0,0,0,363.5742,354.6094,354.6094,352.6172,365.5664,0,0,0,0,0,0,0,0,0,0,0,0,0,465.1758,427.3242,418.3594,410.3906,420.3516,0,0,0,311.0925,311.8085,311.4816,311.5594,539.8828,0,0,0,0,0,0,717.7322,718.7283,718.9774,0,0,0,0,312.8979,311.1548,310.6567,308.4155,306.7969,0,0,818.291,826.2598,839.707,851.6602,862.6172,885.5273,894.4922,909.4336,933.3398,757.1091,757.6538,758.4631,759.9884,762.9456,766.7432,772.5952,778.0737,786.9141,793.8867,805.8398,812.0654,822.7734,833.7305,845.6836,858.1348,880.5469,902.4609,928.3594,955.2539,973.1836,1006.055,801.2485,802.4002,803.334,806.7737,808.1122,815.5518,821.9019,826.3843,834.7266,847.1777,857.8857,866.6016,882.041,901.9629,917.4023,929.3555,950.2734,989.1211,1009.043,1031.953,849.2944,851.4734,853.6212,858.7573,866.1035,868.0957,873.5742,880.5469,890.0098,897.4805,909.4336,924.375,938.3203,951.2695,977.168,0,0,892.5,893.6206,895.6284,897.2314,900.3442,901.5894,911.4258,920.3906,944.7949,965.7129,995.0977,1001.572,1037.93,1056.855,1090.723,1100.684,1125.586,940.6238,941.4331,943.2697,946.4758,952.5769,0,964.5923,976.4209,0,0,0,0,0,0,1212.682,0,0,0,0,0,0,0,0,0,0,0,0,0,0,0,0,0,0,0,0,0,0,0,0,0,0,0,0,0,0,0,0,0,0,0,0,0,0,1379.59,1339.746,1319.824,1292.93,1269.023,1235.654,1217.227,1192.324,1180.371,1170.659,1163.936,1157.648,1156.496,1344.727,1301.895,1273.008,0,1237.148,1210.254,1176.387,1155.718,1133.555,1115.75,1107.532,1105.353,1100.901,1284.961,1270.02,1254.082,1203.281,1166.426,1145.01,1117.119,1092.715,1077.773,1075.781,1064.949,1057.354,1050.599,1047.035,1044.529,1218.223,1165.43,1153.477,1127.578,1109.648,1094.707,1073.789,1052.124,1034.443,1023.362,1011.658,1004.872,1002.257,1001.043,996.7163,1154.473,1126.582,1087.734,1050.879,1046.895,1029.961,1010.537,989.1211,978.6621,965.2148,953.7598,947.2852,943.7988,940.7016,1131.563,1112.637,1088.73,1067.813,1052.871,1006.055,981.1523,956.25,942.0557,921.0132,910.9277
474.7632,472.8955,480.2417,0,0,0,491.5723,516.9727,531.9141,539.8828,551.8359,558.8086,571.7578,576.7383,594.668,600.6445,614.5898,620.5664,635.5078,649.4531,426.9507,427.9935,429.6432,431.2775,432.7405,434.1724,436.04,436.4136,439.4019,445.752,451.2305,454.8413,462.4365,463.9307,461.6895,462.4365,466.9189,470.1563,479.6191,489.082,500.5371,504.0234,510.9961,514.9805,519.9609,528.9258,545.8594,562.793,581.7188,594.668,606.6211,620.5664,628.5352,638.4961,650.4492,663.3984,669.375,458.4366,458.9035,459.3237,459.993,461.1603,462.0941,463.6194,465.4559,467.2925,470.4675,472.522,476.6309,482.4829,486.0938,493.5645,500.2881,505.2686,513.2373,520.957,528.4277,539.3848,554.3262,559.3066,568.7695,574.7461,577.7344,576.2402,576.2402,0,0,0,558.9331,558.8397,559.1354,559.9915,560.614,561.8903,564.2249,567.5244,0,0,0,0,0,0,0,0,0,0,0,0,0,0,0,0,0,0,0,0,1036.436,0,0,0,0,530.6689,526.9336,529.1748,531.416,536.3965,539.6338,547.8516,554.8242,565.7813,573.75,587.1973,599.1504,612.5977,619.5703,632.5195,640.4883,645.4688,658.418,672.3633,690.293,706.2305,725.1563,741.0938,522.2644,522.7313,523.6185,524.9103,525.2682,526.6846,529.4861,532.0386,534.2175,538.0151,542.9956,545.7349,549.2212,555.8203,563.291,568.2715,575.2441,585.7031,592.1777,600.6445,609.1113,620.5664,626.0449,637.002,650.4492,667.3828,681.3281,699.2578,722.168,744.082,0,0,0,0,268.9453,271.9336,268.9453,258.9844,246.0352,230.0977,213.1641,200.7129,191.748,185.2734,181.2891,178.3008,175.5615,173.5693,172.8223,174.5654,174.5654,176.5576,176.5576,176.5576,172.8223,170.8301,170.083,168.3398,167.3438,167.3438,167.3438,167.3438,169.0869,170.8301,173.5693,176.5576,180.293,181.2891,183.2813,182.2852,181.2891,182.2852,185.2734,187.2656,190.752,196.2305,200.7129,208.1836,220.6348,239.0625,266.9531,287.8711,296.8359,307.793,307.793,305.8008,305.8008,311.7773,303.8086,307.793,0,0,0,0,0,0,0,0,0,0,0,0,0,0,0,0,0,0,354.6094,353.6133,354.6094,352.6172,362.5781,0,0,0,0,0,0,0,0,0,673.7485,0,0,0,0,431.3086,417.3633,412.3828,423.3398,0,0,0,311.5594,312.1042,311.4038,311.0147,521.9531,0,0,0,0,0,908.4375,924.375,717.8879,718.6194,719.6622,0,0,0,310.6567,308.9136,307.9175,307.9175,306.2988,0,0,823.7695,830.7422,839.707,846.6797,859.6289,879.5508,897.4805,913.418,943.3008,757.4982,757.9651,758.4631,760.1596,762.4475,765.498,770.4785,776.4551,783.0542,788.9063,802.3535,813.0615,828.252,839.209,851.6602,863.6133,880.5469,896.4844,926.3672,947.2852,963.2227,992.1094,801.2485,802.1823,802.8983,805.5908,808.1122,813.9331,817.793,824.6411,833.2324,843.6914,857.8857,871.084,883.0371,895.4883,911.4258,917.4023,940.3125,983.1445,1009.043,1033.945,849.5279,851.987,853.6212,858.0725,863.3643,863.3643,869.7144,880.5469,892.5,902.71,919.8926,937.3242,949.7754,959.2383,998.0859,1017.012,0,0,0,897.2314,900.6555,904.0173,907.6904,916.7798,931.5967,957.2461,968.2031,992.1094,1000.576,1031.953,1054.863,1102.676,1098.691,1135.547,940.9351,941.8533,943.2697,946.7249,951.4563,957.2461,961.853,970.1953,0,0,0,0,0,1211.483,0,0,0,0,0,0,0,0,0,0,0,0,0,0,0,0,0,0,0,0,0,0,0,0,0,0,0,0,0,0,0,0,0,0,0,0,0,0,0,0,1324.805,1307.871,1287.949,1260.557,1227.686,1209.507,1187.344,1180.371,1172.029,1166.239,1158.955,1157.648,1344.727,1291.934,1257.07,1232.168,1208.76,1193.32,1166.426,1146.753,1127.578,1114.878,1105.602,1104.855,1100.621,1282.969,1252.09,1248.105,1198.301,1160.449,1136.045,1116.123,1088.481,1075.034,1073.042,1063.828,1056.171,1049.821,1045.945,1044.14,1202.285,1153.477,1138.535,1116.621,1101.182,1085.742,1063.828,1047.393,1032.949,1020.374,1010.413,1003.938,1000.172,998.1326,1181.367,1136.543,1100.684,1065.82,1038.926,1030.957,1017.012,1007.051,990.8643,977.168,964.0942,952.2034,945.9778,942.9428,940.6238,1133.555,1114.629,1084.746,1054.863,1034.941,997.5879,971.1914,947.5342,933.0908,917.4023,905.9473
473.3936,472.1484,0,0,0,0,498.5449,528.9258,538.8867,543.8672,553.8281,560.8008,565.7813,580.7227,596.6602,604.6289,618.5742,627.5391,635.5078,426.4838,427.0285,428.2425,429.2853,430.6238,431.4954,433.0206,434.4836,435.7288,437.4719,444.2578,448.9893,452.3511,459.4482,466.9189,464.6777,466.1719,473.3936,476.8799,482.3584,491.0742,500.5371,504.0234,508.5059,513.4863,520.957,532.9102,548.8477,571.7578,588.6914,601.6406,608.6133,624.5508,624.5508,636.5039,646.4648,663.3984,677.3438,458.5922,458.9813,459.5261,459.993,461.3315,462.9346,465.4559,467.2925,469.7205,471.6504,474.2651,478.125,485.4712,490.0781,498.7939,502.7783,507.0117,513.2373,520.957,523.9453,536.8945,548.8477,552.832,563.291,573.252,576.2402,581.7188,578.7305,0,0,559.2444,558.5129,558.1238,558.6685,559.4778,559.8514,560.9409,562.326,564.2249,567.2131,573.0029,0,0,0,0,250.5798,248.4631,246.9067,0,0,243.3582,243.3582,244.4788,0,0,0,0,0,0,0,0,0,0,0,531.416,527.6807,526.1865,531.416,536.3965,539.6338,548.8477,556.8164,564.2871,570.2637,582.2168,595.166,603.6328,616.582,622.5586,635.5078,645.4688,658.418,672.3633,684.3164,704.2383,714.1992,731.1328,521.9531,522.5757,523.385,524.4278,525.6262,526.9025,528.9258,530.4199,533.4705,537.5171,540.8789,543.9917,546.2329,552.334,556.5674,565.7813,572.5049,583.7109,589.6875,596.1621,606.6211,615.5859,624.5508,634.0137,647.4609,662.4023,679.3359,697.2656,718.1836,740.0977,0,0,0,0,261.9727,261.9727,258.9844,248.0273,236.0742,222.1289,208.1836,198.2227,190.752,185.2734,181.2891,179.2969,176.5576,174.5654,171.8262,172.8223,171.8262,172.8223,172.8223,172.8223,170.8301,170.083,168.3398,167.3438,166.5967,165.8496,165.8496,166.5967,167.3438,168.3398,170.8301,173.5693,176.5576,177.3047,179.2969,178.3008,179.2969,179.2969,181.2891,184.2773,187.2656,191.748,198.2227,206.6895,216.6504,233.0859,258.9844,279.9023,292.8516,297.832,299.8242,297.832,299.8242,303.8086,301.8164,0,0,0,0,0,0,0,0,0,0,0,0,0,0,0,0,0,0,0,352.6172,357.0996,360.0879,365.5664,373.0371,0,0,0,0,0,0,0,674.0598,0,674.2932,673.9819,673.7485,0,0,432.3047,403.418,403.418,408.3984,0,0,0,311.5594,312.1042,311.326,311.0147,525.9375,479.1211,479.1211,0,0,0,901.4648,916.4063,928.3594,717.421,718.2147,0,0,0,312.3999,311.1548,308.9136,307.9175,304.3066,0,0,818.291,827.7539,830.7422,840.7031,853.6523,869.5898,892.5,909.4336,939.3164,968.2031,757.4203,757.576,759.0701,760.5176,763.1946,766.7432,773.0933,776.4551,781.9336,796.875,808.3301,821.7773,837.2168,846.6797,854.1504,869.0918,885.5273,907.4414,928.3594,949.2773,979.1602,801.0928,802.8983,804.1745,806.5247,809.6375,814.3066,816.4233,822.8979,832.7344,842.9443,858.6328,868.5938,878.5547,885.5273,901.9629,905.9473,927.3633,969.1992,1003.066,1026.973,849.1388,851.1465,852.5629,855.9247,860.5627,862.6172,869.0918,880.5469,893.2471,904.7021,913.418,933.3398,949.7754,959.2383,999.082,1036.934,0,893.4338,895.9863,898.4143,904.0173,906.8188,912.9199,915.6592,927.1143,937.0752,956.25,973.6816,993.6035,1018.008,1047.891,1084.746,1092.715,1129.57,941.0129,941.7444,942.9428,945.9778,0,0,962.9736,968.2031,0,0,0,0,0,0,0,0,0,0,0,0,0,0,0,0,0,0,0,0,0,0,0,0,0,0,0,0,0,0,0,0,0,0,0,0,0,0,0,0,0,0,0,0,0,0,0,1300.898,1281.973,0,0,0,1182.737,1175.391,1168.169,1164.247,1158.784,1157.259,1338.75,1299.902,1257.07,1222.207,1198.301,1178.379,1157.461,1143.516,1128.823,1116.621,1109.088,1105.851,1100.543,1286.953,1248.105,1226.191,1186.348,1148.994,0,0,1085.991,1073.789,1071.797,1063.33,1056.171,1048.42,1044.84,1235.156,1184.355,1145.508,1130.566,1115.625,1100.186,1088.232,1062.832,1043.906,1026.475,1014.521,1005.806,1000.607,998.2727,996.9498,1171.406,1132.559,1095.703,1060.84,1042.91,1030.957,1017.012,1006.055,990.8643,972.6855,959.2383,947.8455,943.4409,942.3514,940.546,1147.5,1118.613,1092.715,1056.855,1037.93,999.082,974.6777,950.2734,933.0908,917.4023,905.9473
474.7632,475.6348,484.2261,0,0,0,503.5254,534.9023,543.8672,548.8477,562.793,563.7891,567.7734,584.707,598.6523,604.6289,622.5586,639.4922,643.4766,426.5616,426.8729,427.9935,428.6627,429.6432,431.0596,432.4915,433.8611,436.4136,439.4019,446.25,453.5962,456.2109,462.4365,469.1602,468.4131,469.1602,475.1367,478.623,484.1016,493.0664,500.5371,506.5137,512.4902,515.9766,523.4473,534.4043,544.3652,563.7891,576.7383,583.7109,594.668,618.5742,620.5664,638.4961,652.4414,663.3984,669.375,458.5922,458.9813,459.635,459.993,461.6895,463.6194,466.3586,468.2886,470.4675,472.8955,476.6309,479.2456,485.4712,492.0703,498.7939,502.7783,507.7588,515.9766,520.957,528.4277,540.3809,556.8164,559.3066,570.2637,578.7305,581.7188,583.7109,578.7305,0,0,559.2444,558.4351,558.1238,558.6685,559.2444,559.7269,560.7697,561.7035,562.1082,563.4778,566.9019,0,0,0,246.5955,245.755,245.4749,244.9768,244.9768,244.2297,243.7939,243.576,245.2258,247.5293,0,0,0,0,0,0,0,0,0,0,524.6924,525.4395,522.4512,529.1748,532.9102,537.1436,547.1045,553.8281,562.2949,568.7695,579.7266,588.6914,599.1504,609.6094,622.5586,630.5273,644.4727,656.4258,670.3711,684.3164,696.2695,708.2227,718.1836,743.0859,522.42,523.1671,524.4278,526.0309,526.4667,528.6456,529.7974,533.0969,536.6455,539.8828,543.9917,546.8555,551.8359,558.0615,564.7852,571.5088,579.7266,587.6953,595.166,605.625,618.0762,626.0449,634.0137,651.4453,662.4023,679.3359,693.2813,714.1992,728.1445,755.0391,0,0,0,249.0234,255.9961,249.0234,239.0625,228.6035,218.1445,206.6895,196.2305,188.2617,184.2773,180.293,177.3047,175.5615,173.5693,170.083,169.0869,168.3398,168.3398,169.0869,170.083,169.0869,168.3398,167.3438,166.5967,165.8496,164.8535,165.8496,165.8496,165.8496,166.5967,169.0869,170.083,171.8262,172.8223,175.5615,175.5615,176.5576,177.3047,180.293,181.2891,184.2773,188.2617,196.2305,201.709,213.1641,223.623,240.0586,256.9922,274.9219,287.8711,290.8594,292.8516,296.8359,301.8164,301.8164,0,0,0,0,0,0,0,0,0,0,0,0,0,0,0,0,0,0,0,340.166,347.6367,347.6367,353.6133,359.0918,379.0137,0,0,0,0,0,673.4372,673.3594,674.5734,674.3866,674.2932,673.9041,0,0,436.2891,403.418,400.4297,405.4102,0,0,531.9141,311.4816,311.9019,311.1703,310.9369,521.9531,460.1953,460.1953,0,0,0,869.5898,891.5039,910.4297,717.1875,717.8101,0,0,314.1431,310.6567,310.0342,307.9175,307.9175,304.8047,0,0,816.7969,827.7539,826.2598,845.6836,853.6523,864.6094,890.5078,911.4258,935.332,757.0313,757.8094,758.3542,760.5176,762.1985,764.2841,768.175,773.9648,779.6924,785.5444,800.8594,813.0615,824.7656,838.2129,849.1699,855.6445,870.5859,885.5273,906.4453,921.3867,949.2773,981.1523,801.4041,803.6609,805.8087,807.832,811.3184,814.8047,817.793,826.8823,835.4736,841.4502,854.1504,864.6094,875.0684,879.5508,897.9785,908.9355,930.3516,969.1992,1019.004,1045.898,849.6057,852.1582,853.4033,856.5161,860.1892,865.2319,870.7104,883.2861,893.9941,908.4375,909.4336,932.3438,952.7637,971.1914,1009.043,1032.949,0,892.5,894.0408,895.8151,901.5894,904.7644,910.4297,912.9199,926.3672,933.0908,952.2656,969.1992,995.0977,1020.996,1061.836,1088.73,1096.699,1133.555,941.2463,941.7444,942.6471,945.4797,949.0906,0,960.7324,972.1875,0,0,0,0,0,0,0,0,0,0,0,0,0,0,0,0,0,0,0,0,0,0,0,0,0,0,0,0,0,0,0,0,0,0,0,0,0,0,0,0,0,0,0,0,0,0,0,0,0,0,0,0,1184.604,1175.889,1168.916,0,1157.648,1156.403,1315.84,1276.992,1236.152,1203.779,1183.359,1163.438,1150.986,1135.796,1124.59,1116.248,1110.146,1105.851,1100.715,1284.961,1248.105,1221.211,1181.367,0,0,1101.68,1085.244,1070.552,1070.552,1063.33,1056.171,1049.073,1045.338,1247.109,1184.355,1148.496,1125.586,1105.166,1086.738,1076.279,1054.863,1036.685,1020.996,1011.284,1003.347,999.5801,997.4167,996.2494,1150.488,1117.617,1077.773,1053.867,1039.922,1026.475,1010.537,1002.07,988.125,970.6934,956.8726,947.005,942.9428,942.2269,940.4681,0,0,1098.691,1054.863,1036.934,1000.576,978.6621,950.2734,932.3438,916.7798,905.5737
474.2651,476.6309,484.8486,0,0,0,498.5449,530.918,539.8828,541.875,551.8359,556.8164,562.793,578.7305,594.668,604.6289,622.5586,639.4922,645.4688,426.6394,427.1841,428.5071,429.6432,430.6238,433.3008,434.1724,435.7288,438.219,441.8921,446.25,455.4639,456.2109,460.1953,467.666,466.9189,467.666,476.8799,480.3662,485.0977,493.0664,499.541,504.0234,512.4902,514.9805,527.4316,534.4043,545.8594,562.793,578.7305,581.7188,597.6563,620.5664,622.5586,634.5117,657.4219,671.3672,679.3359,458.7479,459.137,459.8685,460.5377,462.2809,464.3665,466.3586,468.6621,470.094,472.522,476.6309,479.7437,484.2261,490.5762,496.5527,502.0313,507.0117,512.2412,516.9727,524.9414,533.9063,550.3418,557.8125,568.7695,581.7188,590.6836,590.6836,586.6992,0,0,558.6685,557.9681,776.9531,558.046,558.5907,558.9331,559.7269,560.1471,561.1276,561.4856,0,0,0,244.9768,244.0118,243.1403,243.1403,242.5488,242.3776,242.7356,242.7356,242.9535,244.4788,246.9067,250.2063,0,0,0,0,0,0,0,0,0,0,525.4395,523.1982,529.1748,534.6533,539.6338,546.1084,552.832,560.3027,564.2871,572.2559,582.2168,594.1699,605.127,621.5625,629.5313,642.4805,658.418,674.3555,682.3242,698.2617,706.2305,718.1836,731.1328,522.1088,523.0737,524.4278,526.0309,527.3694,529.2059,530.7312,533.0969,536.6455,539.8828,543.9917,545.7349,549.2212,553.8281,560.3027,567.2754,575.2441,584.707,590.6836,603.1348,614.0918,627.041,631.0254,644.4727,656.4258,674.3555,688.3008,706.2305,718.1836,740.0977,0,0,0,243.0469,249.0234,243.0469,233.0859,222.1289,210.1758,203.2031,191.748,186.2695,182.2852,180.293,177.3047,174.5654,172.8223,169.0869,167.3438,166.5967,166.5967,166.5967,167.3438,166.5967,166.5967,165.8496,164.8535,164.1064,163.3594,164.1064,164.1064,164.1064,165.8496,168.3398,168.3398,169.0869,170.083,171.8262,171.8262,173.5693,174.5654,177.3047,178.3008,181.2891,186.2695,192.7441,196.2305,206.6895,214.1602,228.6035,248.0273,264.9609,274.9219,287.8711,285.8789,292.8516,299.8242,303.8086,0,0,0,0,0,0,0,0,0,0,0,0,0,0,0,0,0,0,0,325.9717,337.4268,342.9053,347.6367,350.625,357.0996,0,0,0,0,0,886.5234,882.5391,674.1376,674.2154,674.3866,674.2154,0,0,0,407.4023,402.4219,410.3906,0,0,0,311.7151,312.5711,311.6373,311.1703,310.8591,485.0977,479.1211,0,0,0,877.5586,906.4453,916.4063,926.3672,717.421,0,0,312.8979,309.5361,308.9136,307.9175,307.9175,304.3066,0,0,821.2793,829.248,829.248,843.6914,854.6484,864.6094,888.5156,907.4414,923.3789,962.2266,757.2647,757.8873,760.1596,762.4475,764.2841,767.8015,773.5913,779.0698,784.2993,799.8633,814.0576,827.2559,839.209,851.6602,856.6406,867.5977,883.5352,909.4336,925.3711,941.3086,977.168,800.8594,803.334,804.9371,807.832,811.3184,815.1782,818.291,829.9951,837.7148,845.4346,855.8936,865.6055,877.5586,883.0371,899.4727,921.3867,943.3008,981.1523,1033.945,1055.859,849.6057,852.1582,854.8352,856.5161,860.1892,864.7339,868.0957,877.8076,894.9902,914.4141,918.8965,934.834,952.7637,962.2266,994.1016,1021.992,0,1101.68,894.1653,0,902.959,906.4453,911.9238,913.5425,924.375,930.1025,947.5342,962.7246,986.1328,1007.549,1042.91,1074.785,1086.738,1123.594,940.9351,942.1024,942.3514,944.6082,949.4019,951.8298,960.2344,968.2031,0,0,0,0,0,0,0,0,0,0,0,0,0,0,0,0,0,0,0,0,0,0,0,0,0,0,0,0,0,0,0,0,0,0,0,0,0,0,0,0,0,0,0,0,0,0,0,0,0,0,0,0,1181.492,1174.395,1168.916,0,1158.099,1156.589,1323.809,1283.965,1247.109,1213.242,1183.359,1159.453,1146.753,1133.555,1125.71,1117.617,1111.952,1108.154,1101.866,1296.914,1248.105,1215.234,1184.355,1143.516,1125.088,1116.123,0,1078.521,1073.789,1067.065,1054.677,1049.073,1044.84,1241.133,1171.406,1151.484,1122.598,1102.676,1084.746,1073.789,1046.646,1032.949,1017.136,1008.358,1001.51,998.4283,996.7163,1191.328,1148.496,1117.617,1080.762,1059.844,1038.926,1022.49,1003.066,993.6035,979.4092,967.5806,954.2578,945.9778,941.6354,941.4331,1131.563,1137.539,1118.613,1088.73,1047.891,1031.953,997.5879,979.6582,953.2617,930.8496,915.6592,906.4453
479.2456,482.4829,493.5645,0,0,0,0,526.9336,536.8945,539.8828,546.8555,553.8281,553.8281,574.7461,590.6836,606.6211,622.5586,647.4609,649.4531,426.7172,427.3553,429.1296,429.8145,430.6238,432.2424,432.4915,433.3008,436.4136,439.7754,445.2539,454.8413,456.2109,458.2031,465.4248,465.4248,465.4248,473.3936,478.623,484.1016,491.0742,496.5527,504.0234,513.4863,518.4668,532.9102,545.8594,551.8359,565.7813,575.7422,576.7383,590.6836,618.5742,618.5742,640.4883,652.4414,669.375,677.3438,458.67,458.9813,459.8685,460.6778,462.7167,464.3665,467.2925,469.7205,471.2769,472.522,477.627,479.2456,483.728,489.3311,495.0586,499.541,507.0117,511.4941,515.9766,529.4238,538.3887,550.3418,560.8008,571.7578,578.7305,587.6953,590.6836,583.7109,0,0,558.2794,776.9531,770.9766,557.9681,558.2016,558.6685,558.9331,559.3533,559.6024,0,0,0,243.1403,242.0197,241.5372,240.9769,240.8524,240.7278,241.1014,241.3971,242.1909,243.3582,244.9768,246.9067,251.3269,0,0,0,0,0,0,0,0,0,0,526.9336,524.6924,530.6689,536.3965,539.6338,547.1045,555.8203,562.2949,565.7813,573.75,580.7227,595.166,603.6328,624.5508,629.5313,644.4727,650.4492,668.3789,674.3555,692.2852,706.2305,716.1914,733.125,522.2644,523.0737,523.8675,525.2682,526.2488,527.8674,529.2059,531.665,536.6455,539.8828,542.9956,548.5986,551.0889,553.8281,561.0498,566.5283,575.9912,586.6992,596.1621,604.1309,612.5977,626.0449,628.5352,641.4844,650.4492,662.4023,679.3359,695.2734,702.2461,726.1523,0,0,0,237.5684,245.0391,239.0625,230.0977,216.6504,206.6895,199.7168,191.748,185.2734,180.293,179.2969,176.5576,173.5693,171.8262,168.3398,165.8496,165.8496,165.8496,165.8496,166.5967,164.8535,164.1064,163.3594,163.3594,163.3594,162.3633,162.3633,163.3594,163.3594,163.3594,165.8496,166.5967,166.5967,169.0869,170.083,171.8262,173.5693,175.5615,176.5576,177.3047,179.2969,182.2852,188.2617,193.7402,201.709,206.6895,220.6348,234.5801,252.0117,266.9531,278.9063,278.9063,287.8711,294.8438,303.8086,0,0,0,0,634.9475,635.9903,638.6829,641.9824,641.9824,643.6011,647.8345,651.4453,652.9395,657.7954,661.4063,666.6357,0,695.2734,0,0,341.9092,343.9014,349.6289,342.9053,343.9014,0,0,0,0,0,0,872.5781,0,674.0598,674.48,673.4372,0,0,0,407.4023,400.4297,410.3906,0,0,0,311.4816,312.3221,311.1703,527.9297,512.9883,0,0,0,0,817.793,859.6289,893.4961,904.4531,904.4531,0,0,0,315.3882,310.0342,309.5361,307.2949,307.9175,303.8086,0,0,805.8398,816.7969,813.3105,833.7305,846.6797,859.6289,885.5273,903.457,917.4023,954.2578,757.2647,758.1519,760.1596,762.4475,764.0039,767.1167,773.5913,780.813,784.9219,797.6221,812.0654,825.7617,834.7266,846.6797,855.6445,866.1035,883.5352,904.4531,921.3867,939.3164,975.1758,1012.031,803.8165,805.3729,807.2717,810.26,813.1238,814.3066,825.1392,831.9873,837.7148,852.1582,860.625,873.0762,879.5508,904.9512,921.3867,951.2695,981.1523,1026.973,1045.898,849.6991,851.629,854.5862,855.9247,859.1309,862.6172,868.0957,877.8076,893.2471,913.418,926.3672,942.3047,960.7324,978.1641,1006.055,1025.977,1054.863,1089.727,893.356,894.8346,900.033,903.6438,907.6904,910.4297,919.7681,924.375,936.3281,953.2617,977.168,999.082,1031.953,1049.883,1065.82,1096.699,1131.563,940.546,941.7444,942.9428,946.7249,947.8455,956.8726,962.9736,0,0,0,0,0,0,0,0,0,0,0,0,0,0,0,0,0,0,0,0,0,0,0,0,0,0,0,0,0,0,0,0,0,0,0,0,0,0,0,0,0,0,0,0,0,0,0,0,0,0,0,0,1174.893,1170.659,1167.36,1164.869,1160.2,1157.648,1338.75,1283.965,1231.172,1194.316,1166.426,1148.496,1138.784,1130.068,1122.349,1115.251,1110.146,1105.602,1101.119,1296.914,1254.082,1213.242,1198.301,0,1136.045,0,0,1078.521,1068.809,1064.326,1052.373,1047.797,1044.295,1233.164,1160.449,1143.516,1112.637,1095.703,1071.797,1062.832,1039.922,1027.969,1012.654,1006.864,1000.825,998.1326,996.7941,1195.313,1152.48,1115.625,1077.773,1050.879,1032.451,1016.016,1001.074,990.8643,978.6621,966.3354,955.5029,947.2852,0,941.7444,1143.516,1135.547,0,1088.73,0,1029.961,1000.576,981.1523,946.5381,924.873,910.4297,902.5854
479.2456,483.1055,494.3115,0,0,0,0,525.9375,534.9023,541.875,553.8281,562.793,562.793,578.7305,596.6602,608.6133,616.582,645.4688,426.4838,427.0285,427.869,429.6432,430.6238,431.2775,432.7405,433.5809,435.4175,439.0283,442.3901,446.748,455.4639,456.2109,458.2031,466.1719,470.1563,470.1563,479.6191,485.0977,489.082,493.0664,498.5449,505.0195,518.4668,522.4512,536.8945,549.8438,557.8125,570.7617,576.7383,578.7305,590.6836,612.5977,614.5898,640.4883,654.4336,675.3516,681.3281,458.67,459.3237,460.242,461.1603,462.9346,465.4559,467.6038,470.9033,472.522,473.7671,478.125,481.3623,484.8486,491.3232,496.5527,499.541,507.0117,510.498,515.2295,526.9336,539.3848,546.8555,556.8164,567.2754,576.2402,580.7227,587.6953,583.7109,0,0,558.4351,774.9609,766.9922,772.9688,774.9609,774.9609,557.9681,558.046,0,0,0,240.9769,240.8524,240.7278,239.9185,239.9185,239.7629,239.6851,240.1831,240.7278,241.3971,242.5488,244.2297,245.755,249.5215,261.7236,0,0,0,0,0,0,0,0,0,524.6924,526.9336,531.416,537.1436,542.373,547.8516,555.8203,558.8086,560.3027,574.7461,578.7305,602.1387,603.6328,622.5586,632.5195,645.4688,650.4492,670.3711,674.3555,694.2773,704.2383,718.1836,739.1016,522.3422,522.8091,523.8675,525.2682,526.6846,528.1165,530.1086,533.4705,538.0151,541.377,545.1123,549.2212,551.0889,555.8203,561.0498,566.5283,572.5049,582.7148,592.1777,600.6445,608.1152,619.0723,623.0566,635.5078,644.4727,658.418,671.3672,688.3008,697.2656,720.1758,765,0,0,0,230.0977,227.6074,220.6348,208.1836,199.7168,192.7441,188.2617,183.2813,181.2891,178.3008,175.5615,173.5693,170.8301,167.3438,165.8496,165.8496,164.8535,164.8535,164.8535,164.1064,162.3633,162.3633,161.6162,161.6162,160.8691,161.6162,162.3633,162.3633,163.3594,164.8535,164.8535,164.1064,166.5967,168.3398,170.083,171.8262,174.5654,174.5654,176.5576,177.3047,180.293,185.2734,192.7441,199.7168,205.6934,222.1289,234.5801,252.0117,264.9609,274.9219,274.9219,283.8867,294.8438,0,0,0,0,809.8242,838.7109,850.6641,634.5428,635.8502,637.5934,638.9319,641.9824,646.9629,650.4492,654.5581,658.418,663.8965,674.8535,687.5537,0,317.2559,336.4307,344.6484,350.625,341.9092,0,0,0,0,0,0,884.5313,876.5625,673.6707,673.515,0,0,0,0,0,407.4023,395.4492,403.418,0,0,0,531.9141,311.4038,531.9141,514.9805,519.9609,485.0977,469.1602,0,0,807.832,850.6641,885.5273,887.5195,883.5352,0,0,0,320.7422,314.7656,311.1548,309.5361,309.5361,0,0,0,806.8359,810.8203,811.8164,827.7539,840.7031,849.668,874.5703,897.4805,909.4336,935.332,966.2109,757.8094,759.3658,761.5448,764.2841,767.4902,772.2217,778.5718,784.2993,795.3809,806.5869,821.7773,832.7344,845.6836,851.6602,865.1074,882.5391,901.4648,930.3516,957.2461,990.1172,1012.031,803.4897,804.1745,806.7737,807.832,810.9448,813.5596,822.8979,826.3843,834.7266,847.1777,855.8936,869.5898,883.0371,907.4414,930.3516,961.2305,991.1133,1033.945,1053.867,850.1038,851.629,853.8391,855.9247,860.9363,864.2358,871.333,878.5547,893.9941,0,0,940.8105,963.7207,978.1641,996.0938,1018.008,1044.902,1076.777,892.8891,894.1653,899.4727,902.5854,908.064,909.4336,917.4023,923.6279,937.8223,957.2461,979.6582,1004.561,1037.93,1060.84,1082.754,1108.652,1141.523,1147.5,941.4331,942.7872,945.9778,946.4758,957.2461,0,0,0,0,0,0,0,0,0,0,0,0,0,0,0,0,0,0,0,0,0,0,0,0,0,0,0,0,0,0,0,0,0,0,0,0,0,0,0,0,0,0,0,0,0,0,0,0,0,0,0,0,0,1171.033,1165.181,1162.441,0,1157.383,1156.091,1325.801,1279.98,1239.141,1208.76,1169.912,1150.986,1137.29,1126.333,1118.115,1113.633,1108.466,1104.419,1101.119,1099.765,1254.082,1210.254,1186.348,1151.982,1121.602,1101.68,0,1073.042,1064.326,1060.84,1052.996,1048.856,1044.607,1233.164,1162.441,1140.527,1112.637,1095.703,1070.303,1063.828,1039.922,1023.984,1011.284,1006.553,1000.607,997.8836,996.5607,1183.359,1148.496,1111.641,1072.793,1049.385,1029.961,1009.043,992.6074,982.3975,972.1875,961.355,955.8765,949.4019,943.4409,942.2269,940.6238,1135.547,0,1084.746,1046.895,1031.953,1001.572,978.6621,949.5264,929.3555,912.9199,905.2002
479.2456,483.1055,495.8057,518.9648,0,0,501.0352,530.918,544.8633,551.8359,560.8008,565.7813,571.7578,580.7227,598.6523,610.6055,620.5664,639.4922,426.4838,427.0285,427.869,429.2853,430.8417,431.0596,432.7405,433.5809,436.4136,439.7754,445.2539,448.3667,456.2109,455.4639,456.709,460.1953,466.9189,466.1719,475.1367,482.3584,488.0859,491.0742,498.5449,505.0195,518.4668,522.4512,536.8945,549.8438,557.8125,565.7813,575.7422,578.7305,592.6758,612.5977,622.5586,644.4727,661.4063,679.3359,458.3588,458.7479,459.4171,459.993,460.8334,463.3704,466.0474,467.915,471.2769,472.8955,473.7671,479.2456,481.9849,485.4712,490.5762,494.3115,500.2881,509.502,512.2412,517.9688,531.416,538.3887,545.3613,554.3262,564.7852,571.7578,578.7305,584.707,584.707,0,0,558.8397,557.8125,766.9922,763.0078,755.0391,748.0664,0,0,0,239.4516,239.3738,239.4516,239.6072,239.3738,239.2181,239.296,239.296,239.1403,239.6851,240.2765,240.9769,242.1909,244.0118,246.9067,250.5798,262.2217,280.4004,0,0,0,0,0,0,0,0,519.9609,527.6807,530.6689,537.8906,539.6338,546.1084,546.1084,558.8086,560.3027,570.2637,580.7227,599.1504,602.1387,619.5703,627.5391,639.4922,642.4805,659.4141,668.3789,690.293,700.2539,714.1992,733.125,522.2644,522.887,524.2877,525.2682,526.0309,527.8674,530.1086,532.7234,537.5171,540.8789,543.9917,549.2212,553.8281,555.0732,562.5439,566.5283,574.248,583.7109,594.1699,603.1348,610.6055,618.0762,621.5625,631.0254,641.4844,654.4336,666.3867,682.3242,695.2734,714.1992,750.0586,0,0,0,220.6348,218.1445,0,200.7129,197.2266,191.748,186.2695,182.2852,177.3047,173.5693,170.083,168.3398,167.3438,165.8496,165.8496,165.8496,165.8496,164.1064,163.3594,161.6162,160.8691,160.1221,159.375,160.1221,160.1221,160.8691,161.6162,161.6162,163.3594,164.1064,164.1064,164.1064,165.8496,166.5967,169.0869,170.8301,173.5693,173.5693,174.5654,175.5615,179.2969,182.2852,188.2617,192.7441,198.2227,211.6699,226.1133,245.0391,263.9648,279.9023,278.9063,285.8789,294.8438,0,0,0,0,791.8945,811.8164,823.7695,633.5156,634.7296,635.9903,638.465,641.3599,646.2158,648.208,654.5581,657.2974,661.4063,667.3828,682.3242,0,305.3027,326.7188,334.6875,339.1699,333.9404,0,821.7773,0,817.793,829.7461,0,0,876.5625,0,0,0,0,0,0,0,425.332,407.4023,413.3789,0,0,0,537.8906,311.326,527.9297,503.0273,0,495.0586,0,0,0,789.9023,835.7227,873.5742,881.543,877.5586,0,0,0,318.75,314.7656,309.5361,309.5361,308.4155,0,0,813.3105,807.832,809.3262,811.8164,826.2598,840.7031,849.668,881.543,911.4258,921.3867,950.2734,757.2647,758.2452,759.6616,762.1985,765.8093,768.5486,773.5913,780.1904,787.4121,795.3809,807.583,821.7773,833.7305,850.6641,855.6445,865.1074,883.5352,906.4453,930.3516,957.2461,992.1094,1002.07,802.0734,802.7737,804.5325,805.5908,809.3262,812.0032,818.7891,822.8979,830.7422,842.1973,852.1582,869.5898,885.5273,908.9355,930.3516,958.2422,985.1367,1017.012,1043.906,849.7925,851.4734,853.4033,855.9247,859.4421,861.7456,869.0918,882.5391,900.9668,919.8926,944.7949,957.7441,965.2148,977.168,993.1055,1013.027,0,1068.809,1099.688,893.356,896.391,899.1925,905.5737,909.4336,918.5229,0,934.585,953.2617,969.1992,997.5879,1028.965,1063.828,1094.707,1118.613,1145.508,940.8572,941.9778,943.7988,947.005,945.9778,954.6313,0,970.6934,0,0,0,0,0,0,0,0,0,0,0,0,0,0,0,0,0,0,0,0,0,0,0,0,0,0,0,0,0,0,0,0,0,0,0,0,0,0,0,0,0,0,0,0,0,0,0,0,0,0,0,0,0,0,0,1156.589,1155.624,1327.793,1283.965,1250.098,1223.203,1179.873,1153.726,1139.531,1124.59,1114.878,1111.952,1107.22,1103.983,1101.602,1100.232,1258.066,1221.211,1193.32,1150.488,1117.119,1100.933,1077.773,1073.789,1062.832,1059.968,1050.599,1047.984,1251.094,1222.207,1155.469,1132.559,1098.691,1083.252,1057.852,1051.128,1034.443,1022.117,1011.658,1007.611,1000.172,997.7591,996.6385,1177.383,1138.535,1109.648,1074.785,1049.385,1029.961,1011.533,990.8643,981.6504,972.1875,960.7324,955.8765,949.7131,943.4409,942.1024,940.8572,1133.555,1106.66,1074.785,1041.914,1018.008,997.5879,977.168,950.2734,932.3438,914.5386,904.7644
478.125,480.8643,493.5645,514.2334,0,0,494.0625,522.9492,528.9258,539.8828,546.8555,554.8242,562.793,574.7461,592.6758,608.6133,618.5742,633.5156,426.4059,427.1063,427.9935,429.4565,431.2775,432.2424,433.3008,434.7949,437.8455,440.647,443.7598,446.25,451.853,452.3511,454.2188,458.7012,466.1719,466.9189,470.9033,482.3584,488.0859,491.0742,496.5527,508.5059,514.9805,518.4668,531.416,549.8438,555.8203,563.7891,575.7422,580.7227,588.6914,610.6055,620.5664,640.4883,654.4336,671.3672,458.2031,458.67,459.4171,459.8685,461.3315,463.6194,466.6699,468.6621,472.522,475.6348,476.1328,480.2417,482.4829,486.7163,490.0781,497.2998,503.5254,513.2373,511.4941,517.9688,523.9453,530.4199,535.8984,550.3418,557.8125,573.252,578.7305,586.6992,590.6836,0,0,0,765,748.0664,734.1211,722.168,0,0,0,437.2852,454.2188,456.2109,470.1563,472.1484,464.1797,458.2031,452.2266,458.2031,464.1797,239.2181,239.8407,240.2765,241.5372,244.0118,246.0352,250.9534,258.9844,271.4355,0,0,0,0,0,0,0,504.397,518.5913,526.1865,531.416,537.1436,540.6299,544.1162,546.1084,555.8203,557.8125,565.7813,577.2363,599.1504,606.6211,618.5742,627.5391,635.5078,640.4883,658.418,670.3711,690.293,700.2539,714.1992,729.1406,521.9531,522.42,523.992,524.9103,525.8441,528.3655,530.4199,532.0386,535.8984,539.3848,541.377,546.2329,552.334,556.5674,562.5439,568.2715,575.2441,582.7148,593.1738,598.6523,605.625,614.0918,620.5664,630.0293,642.4805,654.4336,669.375,681.3281,691.2891,702.2461,732.1289,0,0,0,0,213.1641,209.1797,196.2305,191.748,188.2617,184.2773,180.293,176.5576,172.8223,169.0869,167.3438,165.8496,164.8535,164.1064,164.1064,163.3594,162.3633,161.6162,160.1221,159.375,158.6279,157.8809,157.8809,158.6279,159.375,160.1221,160.1221,161.6162,162.3633,163.3594,163.3594,164.8535,165.8496,168.3398,170.083,171.8262,172.8223,174.5654,175.5615,178.3008,180.293,185.2734,188.2617,192.7441,205.6934,223.623,243.0469,266.9531,281.8945,278.9063,283.8867,292.8516,0,0,0,0,803.8477,815.8008,828.75,848.6719,634.216,635.181,637.8113,640.4883,644.6594,647.4609,653.9355,655.5542,660.1611,665.8887,677.3438,0,0,332.1973,340.9131,349.6289,0,851.6602,804.8438,799.8633,804.8438,821.7773,0,0,674.0598,674.7913,0,0,0,0,0,0,422.3438,408.3984,413.3789,0,0,0,541.875,311.326,523.9453,503.0273,0,519.9609,0,0,0,0,827.7539,865.6055,875.5664,0,0,0,0,322.9834,314.1431,309.5361,308.4155,309.5361,0,0,813.3105,805.8398,805.8398,809.3262,821.2793,836.7188,848.6719,874.5703,907.4414,913.418,935.332,962.2266,757.4982,758.5721,761.109,766.1206,768.9221,775.459,779.6924,786.9141,791.6455,803.3496,819.7852,829.248,835.7227,846.6797,858.1348,876.5625,899.4727,939.3164,957.2461,990.1172,1010.039,801.98,802.4002,804.3457,805.155,808.3923,812.3767,817.4194,822.8979,831.9873,848.6719,855.8936,881.0449,894.4922,914.4141,929.3555,963.2227,983.1445,1011.035,1037.93,849.4501,850.3372,851.987,854.0881,858.7573,860.1892,867.0996,882.5391,899.2236,913.418,940.8105,952.7637,953.7598,0,985.1367,1011.035,0,1066.816,1081.758,1103.672,894.5389,898.4143,906.4453,915.6592,927.8613,941.3086,944.7949,954.2578,965.7129,983.1445,1001.572,1028.965,1061.836,1084.746,1118.613,1143.516,942.2269,944.6082,947.8455,948.468,956.8726,961.355,972.6855,0,0,0,0,0,0,0,0,0,0,0,0,0,0,0,0,0,0,0,0,0,0,0,0,0,0,0,0,0,0,0,0,0,0,0,0,0,0,0,0,0,0,0,0,0,0,0,0,0,0,0,1169.414,1163.002,1160.2,1157.383,1156.403,1348.711,1317.832,1271.016,1247.109,1222.207,1179.873,1157.461,1139.531,1127.578,1119.609,1115.251,1108.777,1105.602,1101.726,1099.999,1254.082,1210.254,1176.387,1141.025,1110.645,1091.719,1077.026,1069.431,1061.338,1059.47,1049.821,1046.537,1239.141,1202.285,1141.523,1119.609,1093.213,1082.256,1055.859,1047.393,1032.949,1021.619,1013.525,1008.794,0,998.2727,996.9498,1175.391,1138.535,1113.633,1072.793,1039.922,1019.004,1002.07,985.6348,978.6621,972.1875,964.0942,959.7363,954.2578,944.3903,941.8533,940.7794,1123.594,1096.699,1072.793,1039.922,1015.02,996.5918,968.2031,948.5303,933.8379,913.5425,903.6438
473.7671,476.6309,489.3311,515.2295,0,0,493.0664,519.9609,525.9375,539.8828,553.8281,565.7813,574.7461,586.6992,600.6445,616.582,622.5586,639.4922,426.5616,427.262,428.2425,429.4565,430.6238,431.7444,432.4915,433.8611,437.0984,440.647,444.2578,447.8687,452.3511,454.8413,456.709,461.6895,468.4131,470.1563,470.9033,478.623,482.3584,488.0859,492.0703,505.0195,514.9805,522.4512,531.416,552.832,560.8008,570.7617,580.7227,590.6836,592.6758,612.5977,624.5508,644.4727,657.4219,677.3438,458.2809,458.7479,459.3237,459.993,460.8334,462.9346,466.3586,469.3469,473.7671,476.1328,477.1289,481.9849,483.728,487.3389,491.3232,498.7939,502.0313,510.498,511.4941,517.9688,520.957,528.4277,539.3848,551.8359,562.2949,576.2402,577.7344,578.7305,586.6992,0,0,0,757.0313,728.1445,704.2383,0,0,0,411.3867,415.3711,419.3555,425.332,429.3164,433.3008,429.3164,429.3164,435.293,445.2539,454.2188,474.1406,239.6851,240.2765,241.6928,244.4788,247.5293,250.9534,257.9883,272.9297,0,0,0,0,0,0,0,0,516.1011,524.6924,529.9219,534.6533,537.1436,541.377,544.1162,550.8398,557.8125,570.2637,577.2363,591.1816,600.6445,610.6055,621.5625,629.5313,639.4922,654.4336,672.3633,688.3008,700.2539,712.207,731.1328,745.0781,522.42,523.385,524.2877,525.0815,527.1204,528.9258,531.3538,534.2175,537.1436,540.3809,544.6143,551.0889,556.5674,563.291,569.7656,577.9834,584.707,594.1699,597.6563,603.1348,610.6055,616.582,626.0449,641.4844,651.4453,667.3828,682.3242,697.2656,706.2305,736.1133,558.1238,0,0,0,204.1992,199.7168,191.748,186.2695,185.2734,183.2813,178.3008,173.5693,170.083,167.3438,165.8496,164.1064,163.3594,164.1064,163.3594,162.3633,161.6162,161.6162,160.1221,158.6279,157.8809,157.1338,157.1338,157.8809,158.6279,159.375,159.375,160.8691,162.3633,162.3633,163.3594,165.8496,166.5967,168.3398,169.0869,172.8223,173.5693,174.5654,175.5615,178.3008,178.3008,182.2852,0,0,200.7129,218.1445,237.5684,259.9805,273.9258,274.9219,278.9063,285.8789,0,0,0,0,803.8477,819.7852,830.7422,846.6797,634.216,635.5545,638.0292,641.3599,645.4065,648.208,652.4414,655.0562,658.418,663.3984,674.8535,0,0,333.9404,342.9053,350.625,0,847.6758,799.8633,797.8711,793.8867,802.8516,0,0,0,0,0,0,0,0,513.9844,440.2734,429.3164,418.3594,420.3516,0,0,0,310.8591,310.9369,514.9805,495.0586,0,0,0,0,0,0,785.4199,815.8008,0,0,0,0,0,0,0,312.8979,309.5361,311.1548,0,0,795.8789,799.3652,804.3457,807.832,819.7852,837.7148,853.6523,881.543,913.418,921.3867,937.3242,966.2109,757.4203,758.0585,760.3464,764.5642,767.1167,773.9648,778.0737,783.6768,788.9063,799.8633,812.0654,822.7734,829.248,837.2168,851.6602,875.0684,896.4844,932.3438,961.2305,985.1367,1008.047,801.5598,802.0734,803.6609,805.5908,808.3923,813.1238,816.9214,821.2793,826.3843,840.7031,848.6719,871.084,882.041,907.4414,918.8965,950.2734,970.1953,993.1055,1015.02,848.9053,849.8859,850.8508,853.1854,857.7612,860.5627,866.6016,884.0332,900.9668,913.418,938.3203,956.748,955.2539,0,0,1028.965,0,1081.758,1083.75,892.5778,894.9747,898.1653,905.5737,912.9199,928.6084,940.3125,947.5342,951.2695,965.7129,981.1523,1012.031,1023.984,1074.785,1092.715,1112.637,1131.563,942.2269,944.3903,948.468,949.7131,956.3745,960.7324,965.8374,0,0,0,0,0,0,0,0,0,0,0,0,0,0,0,0,0,0,0,0,0,0,0,0,0,0,0,0,0,0,0,0,0,0,0,0,0,0,0,0,0,0,0,0,0,0,0,0,0,0,0,0,0,0,1157.01,1156.169,1338.75,1301.895,1264.043,1244.121,1216.23,1180.869,1164.434,1143.516,1130.815,1120.73,1115.251,1107.532,1104.637,1101.119,1099.765,1252.09,1221.211,1178.379,1137.539,1109.648,1085.991,1075.781,1067.065,1059.47,1056.606,0,1045.12,1222.207,0,0,0,0,1068.311,1051.128,1049.385,1039.922,1023.362,1016.016,1009.167,0,0,996.5607,1158.457,1130.566,1104.668,1065.82,1037.432,1023.984,1004.063,989.8682,980.9033,973.4326,963.4717,959.2383,953.0127,945.4797,942.4915,941.0129,0,1084.746,1058.848,1020.996,997.5879,986.1328,958.2422,943.0518,930.1025,909.9316,901.9006
470.094,473.7671,483.1055,506.0156,0,0,498.5449,520.957,525.9375,536.8945,554.8242,567.7734,580.7227,588.6914,606.6211,614.5898,622.5586,637.5,426.7172,427.262,428.367,429.1296,430.4059,431.7444,433.3008,434.7949,439.7754,442.8882,447.3706,449.4873,452.3511,452.9736,456.2109,460.9424,470.1563,473.3936,477.627,484.1016,487.0898,489.082,494.0625,505.0195,510.9961,515.9766,528.9258,546.8555,555.8203,568.7695,585.7031,590.6836,595.6641,610.6055,626.543,644.4727,659.4141,458.2031,458.67,458.9035,459.4171,460.3821,460.8334,462.9346,466.9812,469.3469,473.7671,476.6309,478.623,482.4829,487.3389,490.5762,495.8057,502.7783,509.502,509.502,510.498,515.9766,515.2295,519.9609,539.3848,555.3223,566.2793,583.7109,587.6953,0,0,0,0,0,0,730.1367,0,0,0,397.4414,394.4531,396.4453,396.4453,401.4258,409.3945,413.3789,415.3711,419.3555,427.3242,437.2852,450.2344,470.1563,239.5294,240.4944,241.864,243.7939,246.5955,251.3269,256.9922,275.1709,0,0,0,0,0,0,0,0,511.6187,518.5913,524.6924,530.6689,534.6533,537.8906,541.377,547.8516,554.8242,561.2988,574.7461,588.6914,598.1543,608.1152,619.5703,627.5391,639.4922,654.4336,670.3711,688.3008,696.2695,710.2148,729.1406,739.1016,522.3422,523.385,524.7546,525.6262,528.1165,529.4861,531.0425,532.7234,535.4004,538.5132,542.373,549.2212,557.3145,562.5439,569.0186,576.9873,579.7266,585.7031,594.1699,599.6484,610.6055,620.5664,628.5352,645.4688,654.4336,669.375,679.3359,700.2539,706.2305,732.1289,557.8125,0,0,0,198.2227,192.7441,185.2734,182.2852,180.293,177.3047,175.5615,171.8262,168.3398,165.8496,164.8535,164.1064,163.3594,163.3594,162.3633,160.8691,160.8691,160.1221,158.6279,157.8809,156.3867,156.3867,155.6396,156.3867,157.1338,158.6279,158.6279,160.1221,161.6162,162.3633,163.3594,164.8535,166.5967,167.3438,169.0869,171.8262,173.5693,173.5693,175.5615,177.3047,177.3047,179.2969,0,0,0,213.1641,231.5918,254.0039,271.9336,274.9219,281.8945,296.8359,0,0,0,801.8555,803.8477,817.793,832.7344,850.6641,634.2938,635.43,637.4066,639.928,642.9163,646.9629,652.9395,657.2974,662.0288,671.8652,683.0713,0,304.3066,329.707,340.9131,344.6484,0,839.707,801.8555,792.8906,790.8984,799.8633,813.8086,851.6602,0,0,0,0,0,293.2874,287.0306,443.2617,422.3438,413.3789,415.3711,0,0,0,537.8906,537.8906,517.9688,483.1055,0,0,0,0,0,0,0,0,0,0,0,0,0,0,0,306.2988,304.3066,304.3066,0,0,811.8164,811.8164,810.8203,816.7969,826.2598,846.6797,856.6406,885.5273,909.4336,925.3711,935.332,966.2109,970.1953,757.8094,759.3658,763.7238,766.1206,773.0933,776.4551,781.9336,784.2993,792.3926,803.3496,814.8047,824.7656,835.7227,850.6641,866.1035,894.4922,928.3594,963.2227,992.1094,1012.031,801.4041,801.7154,803.0383,804.3457,807.2717,812.0032,0,819.7852,827.5049,837.7148,846.1816,865.6055,881.0449,895.4883,915.9082,943.3008,967.207,987.1289,1013.027,1045.898,849.5279,850.2127,852.5629,856.5161,859.8157,866.1035,884.7803,899.2236,912.4219,930.8496,949.7754,956.748,0,0,1017.012,0,1068.809,1097.695,893.4338,897.2314,901.9006,911.9238,916.2817,930.1025,943.0518,950.2734,0,969.1992,989.6191,1009.043,1024.98,1063.828,1084.746,1114.629,940.4681,942.4915,948.468,954.2578,955.0049,957.7441,962.9736,963.4717,0,0,0,0,0,0,0,0,0,0,0,0,0,0,0,0,0,0,0,0,0,0,0,0,0,0,0,0,0,0,0,0,0,0,0,0,0,0,0,0,0,0,0,0,0,0,0,0,0,0,0,0,1160.885,1158.784,1157.134,1156.247,1340.742,1309.863,1275,1252.09,1225.195,1185.85,1166.426,1147.5,1135.796,1125.212,1121.726,1110.458,1105.851,1101.119,1296.914,1238.145,1210.254,1169.414,1130.068,1109.648,1086.738,1073.789,1063.828,1058.225,0,0,1044.295,1210.254,1182.363,1132.559,0,0,0,1053.12,1046.646,1037.432,1023.362,1019.875,1010.413,0,0,996.7163,1146.504,1124.59,1094.707,1063.828,1037.432,1029.961,1005.059,987.3779,976.4209,970.1953,957.2461,955.8765,951.4563,944.6082,941.8533,940.9351,1110.645,1076.777,0,1018.008,989.6191,978.6621,953.2617,938.8184,925.6201,909.0601,901.9006
