0,0,0,0,0,0,0,359,359,359,359,359,359,359,359,358,358,358,357,357,356,357,357,357,357,357,357,358,358,358,358,358,358,358,358,359,359,359,359,359,358,357,356,355,353,353,352,352,352,352,352,352,352,352,352,352,352,352,352,352,353,352,353,353,353,354,355,355,356,356,357,357,358,359,360,361,362,363,366,369,374,382,395,416,441,459,473,479,483,486,488,488,488,484,472,0,0,0,0,0,0,351,353,354,355,355,356,356,357,357,358,358,359,359,359,359,359,359,360,360,361,361,361,361,361,361,362,362,363,363,364,364,364,364,364,364,364,365,365,365,365,365,365,366,365,366,366,366,367,367,368,368,368,368,368,369,369,370,370,370,370,370,370,371,371,371,371,371,371,372,372,372,373,373,373,374,374,374,374,375,375,375,376,376,376,376,376,377,377,378,378,378,378,378,378,379,379,380,380,381,380,380,381,381,381,381,382,381,381,381,382,382,383,383,384,384,384,384,384,384,384,384,384,385,385,385,385,386,386,386,386,386,386,385,386,386,386,386,387,387,388,388,389,389,389,389,390,390,390,391,392,392,392,393,393,393,394,394,394,393,393,393,393,393,394,394,395,395,395,395,396,396,397,397,397,397,397,397,397,397,398,398,398,398,398,398,398,398,399,398,399,399,400,400,400,401,401,401,401,401,401,402,402,402,403,403,403,403,404,404,404,404,404,405,405,405,405,406,406,406,407,407,407,408,408,408,408,409,408,409,410,410,410,410,410,410,411,411,411,411,412,412,412,412,413,413,413,413,413,413,413,414,415,415,415,415,415,415,415,416,416,416,417,417,417,417,417,417,417,418,418,418,419,419,419,420,420,420,421,421,421,422,422,422,423,423,424,424,425,425,425,425,426,426,427,427,427,428,428,428,429,429,429,429,429,429,430,430,431,432,434,436,441,443,443,443,0,0,0,0,0,0,0,0,0,0,0,0,0,0,0,0,0,3472,3473,3474,3475,3474,3474,3476,3478,3478,3479,3478,3479,3479,3477,3476,3474,3476,3478,3482,3482,3481,3481,3479,3479,3479,3482,3480,3481,3480,3479,3478,3477,3473,3461,3453,3438,3422,3411,3392,3384,0,0,0,0,0,0,0,0,0,0,0,0,0,0,0,0,0,0,0,0,0,0,0,0,0,0,2856,2846,2835,2826,2816,2802,2791,2775,2759,2747,2727,2715,2695,2679,2670,2658,2654,2636,2624,2604,2588,2577,2565,2557,2546,2532,2516,2502,2485,2475,2462,2454,2443,2428,2414,2402,2390,2382,2374,2362,2353,2341,2328,2316,2304,2293,2287,2278,2270,2263,2254,2240,2229,2219,2210,2202,2193,2184,2174,2167,2155,2146,2135,2128,2119,2114,2106,2099,2088,2076,2071,2066,2057,2050,2043,2032,2022,2011,2004,1993,1985,1976,1971,1961,1954,1945,1938,1930,1922,1914,1906,1899,1891,1885,1877,1870,1860,1853,1844,1836,1830,1821,1813,1805,1797,1789,1780,1774,1768,1761,1754,1749,1741,1733,1725,1718,1709,1701,1696,1688,1682,1676,1668,1661,1653,1643,1635,1629,1623,1616,1609,1602,1595,1589,1583,1579,1574,1569,1563,1560,1553
0,0,0,0,0,0,0,360,359,359,359,359,359,359,359,359,359,358,358,358,358,358,358,359,359,359,358,359,359,359,358,358,358,358,359,359,359,359,360,360,359,358,358,357,356,355,354,354,353,353,353,353,353,353,353,353,353,353,353,353,353,353,353,353,353,353,354,354,355,355,356,356,357,358,359,360,361,362,364,366,369,373,381,393,410,436,455,469,478,482,485,486,485,479,459,0,0,0,0,0,0,351,353,354,355,355,356,356,357,357,358,358,358,359,359,359,359,360,360,361,361,361,361,362,362,362,362,363,363,363,364,365,364,364,364,364,364,364,365,365,365,365,365,365,366,366,366,367,367,367,368,367,368,367,368,368,369,370,370,370,370,370,370,371,371,371,372,372,372,372,373,373,373,373,373,373,373,374,374,374,375,375,375,376,376,376,376,377,377,377,378,378,378,378,378,378,379,380,380,381,380,381,381,381,381,381,381,381,381,381,381,382,382,383,384,384,384,384,384,384,384,384,385,385,385,385,385,385,386,386,386,386,386,386,386,386,386,386,387,387,388,388,389,389,389,389,390,390,390,391,391,391,392,392,393,393,394,394,394,393,393,393,393,394,394,394,394,394,394,395,396,396,397,397,397,397,397,397,397,397,398,398,398,398,398,398,398,398,398,398,398,399,399,400,400,401,401,401,401,401,401,402,402,403,403,403,403,403,404,404,404,404,405,405,405,405,405,406,406,407,407,407,407,408,408,408,408,408,408,409,409,410,410,410,410,410,410,411,411,411,411,412,412,412,413,413,413,413,413,413,413,414,415,415,415,415,415,415,415,415,415,416,416,416,416,417,417,417,417,418,418,418,419,419,419,420,420,420,420,421,421,422,422,422,423,423,424,424,424,425,425,425,426,426,427,427,427,428,428,428,428,428,428,429,429,429,430,430,430,431,433,434,439,441,443,0,0,0,0,0,0,0,0,0,0,0,0,0,0,0,0,0,3469,3475,3475,3473,3473,3473,3473,3474,3478,3479,3480,3478,3480,3480,3477,3479,3478,3477,3478,3483,3481,3480,3482,3481,3480,3481,3482,3482,3482,3480,3480,3477,3475,3473,3462,3455,3432,3422,3405,3392,3388,3368,0,0,0,0,0,0,0,0,0,0,0,0,0,0,0,0,0,0,0,2956,0,2924,0,0,2880,2862,2851,2833,2822,2811,2793,2791,2778,2757,2748,2731,2711,2695,2687,2678,2665,2655,2633,2619,2603,2590,2578,2565,2551,2546,2531,2518,2509,2492,2476,2466,2454,2444,2430,2417,2402,2392,2384,2373,2360,2353,2340,2328,2313,2303,2295,2287,2278,2273,2260,2249,2237,2228,2218,2209,2202,2195,2187,2177,2169,2158,2150,2136,2129,2120,2115,2104,2098,2087,2078,2070,2066,2057,2050,2042,2034,2023,2013,2004,1993,1984,1976,1970,1962,1955,1946,1939,1929,1922,1914,1906,1898,1890,1884,1877,1870,1862,1854,1846,1838,1830,1821,1813,1803,1796,1787,1780,1773,1766,1759,1753,1746,1738,1732,1724,1716,1710,1703,1696,1688,1681,1676,1669,1661,1651,1644,1637,1630,1624,1618,1610,1603,1596,1590,1585,1580,1575,1568,1563,1557,1552
0,0,0,0,0,0,360,360,360,360,360,359,359,360,360,360,360,359,359,359,359,359,359,360,359,359,359,359,359,359,359,359,359,359,359,359,359,360,360,360,360,359,359,359,358,357,356,355,354,354,354,354,354,354,353,353,354,353,354,353,353,353,353,353,353,353,354,354,354,354,355,355,356,357,358,358,359,360,362,363,365,368,372,378,389,408,430,451,466,474,478,479,477,469,0,0,0,0,0,0,0,351,353,354,355,355,356,356,357,357,358,358,358,359,359,359,359,360,360,361,361,361,361,362,362,362,362,363,363,364,364,365,364,364,364,364,364,365,365,365,365,365,365,366,366,366,367,367,367,368,368,367,368,367,368,368,369,370,370,371,371,371,371,371,371,371,372,372,372,373,373,373,373,373,373,373,374,374,374,375,375,375,375,376,376,376,377,377,377,377,378,378,378,378,378,378,378,379,380,380,380,381,381,381,381,381,381,381,381,381,381,382,382,383,383,384,384,384,384,384,384,385,385,385,385,385,385,385,385,385,386,386,387,387,387,386,386,386,386,387,387,388,389,389,389,389,389,390,390,391,391,391,392,392,393,393,393,393,393,393,393,393,394,394,394,394,394,394,394,395,395,396,397,397,397,397,398,397,398,398,398,398,398,398,398,398,398,398,398,398,399,399,399,400,400,400,401,401,401,401,401,401,402,402,403,403,403,403,404,404,404,405,405,405,405,405,406,406,406,406,407,407,407,408,408,408,408,408,408,409,409,410,410,410,410,410,411,411,411,411,411,411,412,412,413,413,413,413,413,413,413,414,415,415,415,416,415,415,415,415,415,416,416,417,417,417,417,417,418,418,418,418,419,419,419,420,420,420,420,420,421,421,422,422,423,423,424,424,424,425,425,425,426,426,426,427,427,428,428,428,428,428,428,428,428,429,429,429,430,431,432,434,438,442,443,0,0,0,0,0,0,0,0,0,0,3473,0,0,0,0,0,0,3471,3475,3476,3477,3474,3473,3474,3478,3478,3480,3479,3479,3478,3479,3478,3479,3479,3479,3479,3483,3482,3482,3482,3483,3483,3485,3485,3484,3483,3480,3479,3478,3474,3468,3461,3452,3434,3421,0,3396,0,0,0,0,0,0,0,0,0,0,0,0,0,0,0,0,0,0,0,0,0,0,0,2919,0,2885,2877,2868,2845,2833,2825,2813,2801,2789,2770,2758,2743,2726,2708,2692,2684,2675,2663,2648,2638,2629,2610,2595,2586,2566,2556,2538,2529,2519,2504,2490,2480,2464,2454,2441,2432,2415,2406,2393,2381,2373,2361,2350,2338,2326,2315,2305,2299,2290,2283,2273,2260,2251,2239,2231,2219,2212,2203,2195,2187,2177,2170,2158,2150,2139,2132,2121,2114,2104,2096,2085,2079,2071,2066,2059,2051,2043,2035,2023,2015,2005,1993,1985,1976,1970,1959,1955,1946,1938,1930,1922,1915,1905,1897,1889,1883,1875,1867,1859,1851,1843,1836,1829,1821,1814,1806,1796,1787,1781,1775,1768,1759,1752,1745,1735,1731,1724,1716,1709,1702,1695,1688,1682,1676,1670,1660,1650,1642,1634,1630,1624,1619,1610,1604,1597,1590,1584,1579,1573,1567,1559,1555,1548
0,0,0,0,0,0,362,362,361,361,361,360,360,361,361,361,361,361,360,360,360,360,361,361,360,360,360,360,360,360,359,360,359,359,359,360,360,360,360,360,360,360,360,360,360,359,358,357,356,355,355,355,355,355,354,354,355,354,354,354,354,354,354,354,353,353,353,353,354,354,354,355,355,356,357,357,358,359,360,361,363,365,367,371,0,386,401,420,440,456,466,469,464,0,0,0,0,0,0,0,0,351,353,354,355,355,356,356,357,357,357,358,358,358,359,359,359,360,360,361,361,362,362,362,362,362,362,363,363,364,364,364,364,364,364,364,364,365,365,365,365,365,365,366,366,366,367,367,367,367,367,367,367,367,368,369,369,370,370,370,370,371,371,371,371,371,372,372,372,373,373,373,373,373,373,373,374,375,375,375,375,375,375,376,376,376,377,377,377,377,377,378,377,377,378,378,379,380,380,381,381,381,381,381,382,382,381,381,381,380,381,381,381,382,383,383,383,384,384,384,384,384,385,384,384,384,384,384,385,385,386,387,387,387,388,387,387,386,386,387,387,388,388,388,388,389,390,390,390,391,391,391,392,392,393,393,393,393,393,393,393,393,394,394,394,394,394,394,394,395,395,396,396,397,397,397,397,398,398,398,398,398,398,398,398,397,397,397,398,398,399,399,399,400,400,400,401,401,401,401,401,401,402,402,402,403,403,403,404,404,405,405,405,405,405,405,405,406,406,406,407,407,407,408,408,408,408,408,408,409,409,410,410,410,410,410,411,411,411,411,411,411,412,412,412,413,413,413,413,413,413,414,414,415,415,416,415,415,415,415,415,416,416,417,417,417,417,417,417,417,418,418,418,418,419,419,420,420,420,420,421,421,422,422,423,423,423,424,424,425,425,425,426,426,426,427,427,428,428,428,428,428,428,428,428,428,429,429,430,431,432,433,437,440,442,0,0,0,0,0,0,0,0,0,0,0,3463,0,0,0,0,3468,3477,3477,3480,3479,3477,3479,3478,3478,3482,3481,3480,3479,3479,3481,3481,3482,3483,3482,3481,3482,3481,3482,3483,3484,3484,3485,3485,3482,3482,3479,3477,3475,3475,3468,3462,3448,3433,3420,3410,3398,3382,0,0,0,0,0,0,0,0,0,0,0,0,0,0,0,0,0,0,0,0,0,2941,2917,2909,2886,2877,2852,2849,2838,2827,2814,2790,2781,2774,2757,2744,2728,2711,2696,2685,2675,2666,2656,2636,2618,2616,2594,2581,2565,2556,2541,2531,2518,2509,2496,2483,2470,2455,2442,2433,2417,2409,2395,2385,2376,2362,2352,2337,2327,2316,2308,2302,2292,2283,2271,2260,2251,2239,2231,2220,2210,2202,2194,2186,2178,2172,2160,2150,2140,2133,2121,2115,2105,2096,2087,2078,2072,2067,2058,2051,2043,2033,2025,2015,2005,1994,1984,1976,1970,1961,1954,1946,1937,1928,1922,1914,1906,1899,1889,1881,1874,1867,1860,1853,1844,1836,1830,1822,1814,1805,1798,1790,1782,1775,1768,1760,1752,1745,1736,1730,1724,1719,1711,1701,1695,1687,1682,1675,1667,1661,1651,1643,1635,1630,1625,1621,1613,1606,1599,1591,1584,1578,1573,1565,1558,1552,1547
0,0,0,0,0,365,365,364,363,362,362,362,362,362,362,362,362,362,362,362,362,362,362,361,361,361,361,361,361,360,360,360,360,360,361,360,360,361,361,360,361,361,360,361,361,361,359,359,358,357,357,356,356,355,355,355,355,355,355,355,355,355,355,355,354,354,353,353,353,354,354,354,355,355,356,356,357,358,359,360,361,362,364,366,0,0,0,396,411,428,440,440,431,415,0,0,0,0,0,0,0,352,353,354,355,356,356,356,357,357,357,358,358,358,359,359,359,360,360,361,361,361,362,362,362,363,363,363,363,364,364,364,364,364,364,365,365,365,365,365,365,365,366,366,366,366,366,367,367,367,367,368,368,368,368,369,369,370,370,370,370,371,370,371,371,371,372,372,372,372,373,372,372,373,373,373,374,375,375,375,375,375,375,376,376,377,377,377,377,377,377,377,377,378,378,378,378,379,379,380,381,381,381,382,382,382,381,381,381,381,381,381,381,382,382,383,383,383,383,383,384,384,385,384,385,384,384,384,385,385,386,386,387,388,388,388,387,387,387,387,387,388,388,388,389,389,390,390,391,391,391,391,392,392,392,393,393,393,393,393,393,394,394,394,394,394,394,394,395,395,396,396,397,397,397,397,397,398,398,398,398,398,398,397,398,397,397,398,398,398,399,399,399,400,400,400,400,401,401,401,401,401,401,402,402,403,403,403,404,404,404,405,405,405,405,405,405,406,406,406,407,407,407,407,407,407,408,408,408,409,409,409,409,410,410,410,410,411,411,411,411,411,412,412,412,413,413,413,414,414,413,414,414,414,415,415,415,415,415,415,415,416,417,417,417,417,417,417,417,417,417,418,418,418,419,419,420,420,420,420,420,421,421,422,423,423,423,424,424,424,425,425,426,426,426,427,427,428,428,428,428,428,428,429,428,429,429,429,430,431,432,433,438,441,440,0,0,0,0,0,0,0,0,0,0,0,3468,3467,3468,3465,3465,3468,3473,3478,3479,3480,3480,3480,3481,3481,3482,3481,3479,3479,3479,3480,3480,3482,3483,3483,3482,3484,3483,3484,3485,3487,3487,3487,3485,3483,3481,3478,3479,3475,3474,3471,3462,3449,0,3426,0,3398,3381,3378,3359,0,0,0,0,0,0,0,0,0,0,0,0,0,0,0,0,0,0,0,0,2923,2893,2882,2865,2856,2850,2835,2821,2809,2794,2781,2768,2753,2739,2724,2706,2699,2683,2678,2661,2653,2642,2626,2613,2597,2576,2563,2548,2540,2530,2517,2506,2494,2481,2468,2454,2440,2429,2421,2405,2394,2382,2369,2363,2345,2336,2326,2318,2309,2303,2292,2281,2272,2259,2250,2239,2233,2222,2211,2202,2196,2189,2182,2174,2164,2154,2141,2131,2123,2115,2104,2097,2089,2081,2074,2069,2059,2049,2043,2033,2024,2015,2006,1996,1986,1977,1969,1961,1953,1946,1938,1929,1922,1916,1906,1900,1891,1882,1873,1866,1859,1852,1845,1836,1831,1821,1813,1803,1796,1787,1782,1775,1767,1760,1751,1744,1737,1732,1723,1717,1710,1703,1696,1688,1682,1676,1669,1660,1651,1642,1635,1630,1624,1619,1614,1608,1600,1591,1585,1579,1573,1565,1559,1553,1547
0,0,0,0,375,371,369,368,366,365,365,364,364,364,364,364,364,364,364,364,364,364,364,363,363,363,362,362,362,361,361,361,360,361,361,361,361,362,361,361,361,361,361,362,362,361,361,360,360,359,359,359,358,357,357,356,356,356,356,356,356,356,356,355,355,354,353,353,353,353,353,353,354,354,355,355,356,357,358,358,360,360,362,363,365,0,0,0,0,398,404,408,401,388,378,0,0,0,0,0,0,352,353,354,355,356,356,357,357,357,358,358,358,358,359,359,359,360,360,361,361,361,361,362,362,363,363,363,363,364,364,364,364,364,364,365,365,365,365,365,365,365,366,366,366,366,366,366,367,367,367,368,368,368,369,369,369,370,370,370,370,371,370,371,371,371,372,372,372,373,373,372,372,373,373,373,374,375,375,375,375,375,375,376,376,377,377,377,377,377,377,377,377,378,378,378,379,379,380,380,381,381,382,382,382,382,381,381,381,381,381,381,381,382,382,382,383,383,382,383,383,384,385,385,385,385,384,384,385,385,386,386,387,388,388,388,388,388,388,387,388,388,388,388,389,389,390,390,391,391,391,391,391,392,392,392,393,393,393,393,393,394,394,394,394,394,394,394,395,395,396,396,396,397,397,397,397,398,398,398,398,398,398,397,398,397,397,398,398,398,399,399,399,400,400,400,401,401,401,401,401,401,401,402,402,403,403,403,403,404,404,405,405,405,405,405,405,405,406,406,407,407,407,407,407,407,407,408,408,409,409,410,409,410,410,410,410,411,411,411,411,411,412,412,412,413,413,413,414,414,413,414,414,414,415,415,415,415,415,415,415,416,416,417,417,417,417,417,417,417,417,417,418,418,419,419,419,420,420,420,420,421,421,422,422,423,424,424,424,425,425,425,426,426,426,427,427,428,428,428,428,428,428,429,428,429,429,429,429,431,431,433,437,440,438,0,0,0,0,0,0,0,0,0,0,0,3471,3468,3466,3467,3468,3470,3472,3476,3479,3480,3481,3479,3480,3481,3480,3478,3478,3478,3479,3480,3482,3483,3483,3484,3484,3484,3482,3483,3483,3485,3487,3486,3485,3482,3481,3477,3479,3477,3476,3468,3462,3450,3439,3427,3413,3403,3388,3368,3356,0,0,0,0,0,0,0,0,0,0,0,0,0,0,0,0,0,0,0,0,2918,2900,2885,2867,2860,2841,2837,2824,2814,2794,2781,2767,2757,2746,2726,2712,2694,2688,2674,2665,2648,2635,2619,2602,2592,2581,2565,2550,2541,2532,2518,2506,2495,2485,2470,2460,2442,2433,2417,2407,2394,2384,2373,2360,2350,2338,2328,2319,2310,2303,2291,2280,2270,2263,2253,2244,2235,2222,2214,2203,2197,2188,2183,2174,2165,2152,2141,2133,2123,2115,2105,2097,2090,2082,2074,2068,2058,2048,2041,2031,2023,2013,2008,1997,1989,1980,1972,1962,1954,1946,1937,1929,1921,1915,1906,1898,1889,1881,1874,1866,1861,1855,1845,1837,1830,1820,1812,1804,1794,1787,1780,1774,1766,1759,1751,1745,1737,1732,1724,1716,1709,1703,1694,1687,1681,1674,1669,1660,1651,1643,1634,1629,1624,1619,1615,1609,1603,1594,1587,1580,1574,1565,1558,1552,1547
0,0,0,0,386,380,374,372,371,369,369,368,368,368,368,368,368,368,368,367,367,367,366,365,365,365,364,364,364,363,362,363,362,362,362,362,362,362,362,361,362,362,361,361,361,361,361,361,360,360,360,360,360,359,358,357,357,356,356,356,356,356,357,356,356,355,354,353,353,353,353,353,353,354,354,355,356,356,357,357,358,359,360,361,363,365,0,0,0,0,0,0,386,381,373,366,0,0,0,0,0,352,353,354,355,356,356,357,357,357,358,358,359,359,359,359,359,360,360,360,360,361,361,361,362,363,363,363,363,363,364,364,364,364,365,365,365,365,365,365,365,366,366,366,366,366,366,366,367,367,367,368,368,369,369,369,369,369,370,370,370,371,371,371,371,371,372,372,372,372,372,372,372,373,373,374,375,375,375,375,375,375,375,376,376,377,377,377,377,377,377,378,378,378,378,378,379,379,380,380,380,381,381,382,382,382,382,382,381,381,381,381,381,382,382,383,383,383,383,383,383,384,385,385,385,385,385,384,384,384,385,386,387,387,388,388,389,388,388,388,388,388,388,388,389,389,389,390,390,391,391,391,391,392,392,392,393,393,393,393,394,394,394,394,394,394,394,394,395,395,395,396,396,396,396,396,397,397,397,397,398,397,398,397,398,397,398,398,398,398,399,399,399,399,400,400,401,401,401,401,401,401,401,401,402,403,403,403,403,404,404,405,405,405,405,405,405,405,405,406,407,407,407,407,407,407,407,408,408,409,409,409,409,410,410,410,410,411,411,411,411,411,411,412,412,413,413,413,413,414,414,414,414,414,414,415,415,415,415,415,416,416,416,417,417,417,417,417,417,417,417,417,418,418,419,419,419,419,420,420,421,421,421,422,422,423,423,424,424,425,425,426,426,427,426,427,427,427,427,428,428,428,428,428,428,429,429,429,430,431,432,434,437,442,439,439,0,0,0,0,0,0,0,0,0,0,3478,3473,3472,3471,3468,3471,3472,3475,3478,3482,3482,3482,3482,3480,3478,3477,3476,3477,3478,3480,3480,3481,3481,3483,3485,3484,3483,3484,3485,3486,3486,3487,3486,3484,3482,3480,3479,3476,3472,3467,3462,3451,0,3430,3414,3398,3388,3376,0,0,0,0,0,0,0,0,0,0,0,0,0,0,0,0,0,0,0,0,0,2912,2907,2888,2872,2863,2846,2839,2819,2810,2787,2779,2766,2747,2737,2725,2715,2697,2679,2676,2667,2652,2634,2614,2601,2589,2575,2565,2550,2540,2524,2518,2510,2495,2484,2468,2456,2436,2434,2417,2404,2393,2383,2371,2356,2346,2337,2330,2319,2308,2299,2289,2280,2270,2260,2253,2243,2236,2221,2215,2203,2199,2187,2184,2174,2164,2152,2142,2130,2120,2113,2105,2097,2089,2084,2075,2067,2059,2050,2042,2033,2025,2016,2009,1999,1990,1982,1973,1963,1954,1946,1936,1928,1920,1914,1906,1900,1889,1881,1874,1865,1859,1854,1846,1837,1829,1820,1812,1802,1795,1789,1781,1775,1767,1759,1752,1746,1738,1733,1725,1717,1708,1700,1693,1686,1681,1673,1667,1660,1652,1644,1635,1628,1623,1620,1615,1609,1604,1596,1588,1580,1575,1567,1561,1555,1550
0,0,0,408,400,391,384,380,377,376,375,374,374,374,374,374,375,374,374,374,374,373,372,370,370,369,367,367,366,365,365,365,363,363,363,363,362,363,363,362,362,362,362,362,362,361,361,361,361,361,362,361,361,361,360,359,358,358,357,357,356,357,357,357,356,356,354,353,353,352,352,353,353,353,354,354,355,355,356,356,357,357,359,359,360,362,364,0,0,0,0,0,0,0,372,367,0,0,0,0,0,351,353,354,355,356,356,357,357,357,358,358,359,359,359,359,360,360,360,361,361,361,361,361,362,362,363,363,363,363,364,364,364,364,365,365,365,365,365,366,366,366,366,366,366,366,365,366,366,367,367,368,369,369,369,370,369,369,369,370,370,370,370,370,371,371,371,371,372,372,372,372,372,373,374,374,374,375,375,375,375,375,375,376,376,377,377,377,377,377,377,377,377,378,378,379,379,379,380,380,380,381,381,381,382,382,382,382,382,381,381,381,382,382,383,383,383,383,383,383,383,384,385,385,385,385,384,384,384,384,385,386,386,387,388,388,388,388,389,389,389,388,388,388,388,389,389,390,390,390,391,391,391,392,392,393,393,393,393,393,394,393,394,394,394,394,394,394,395,395,395,396,396,396,396,396,396,396,397,397,397,397,397,397,398,398,398,398,398,399,399,399,400,399,400,400,400,401,401,401,401,401,401,401,402,403,403,403,403,403,404,404,404,405,405,405,405,405,405,405,406,407,407,407,407,407,407,408,408,409,409,409,409,410,410,410,410,411,411,411,411,411,412,412,412,413,413,413,413,413,413,414,413,414,414,415,415,415,415,415,415,416,416,416,417,417,417,417,417,417,417,418,418,418,419,419,419,420,420,420,421,421,421,422,422,423,423,424,424,425,425,425,426,426,426,426,427,428,427,428,428,428,428,429,429,429,429,430,430,431,432,433,436,440,439,0,0,0,0,0,0,0,0,0,0,3478,3473,3472,3472,3468,3468,3473,3474,3478,3479,3480,3480,3481,3480,3478,3477,3476,3476,3478,3478,3480,3482,3483,3485,3484,3486,3485,3485,3484,3484,3486,3487,3486,3486,3485,3482,3481,3481,3478,3472,3468,3462,3451,3440,3429,3415,3407,3388,3376,0,0,0,0,0,0,0,0,0,0,0,0,0,0,0,0,0,0,0,0,0,2924,2905,2890,2872,2869,2847,2841,2825,2815,2792,2782,2768,2759,2745,2731,2714,2702,2691,2680,2661,2649,2623,2608,2596,2588,2578,2567,2552,2544,2527,2523,2509,2499,2486,2476,2461,2452,2436,2418,2413,2399,2382,2371,2359,2348,2339,2331,2319,2310,2299,2290,2278,2271,2261,2255,2244,2237,2224,2215,2204,2199,2188,2181,2168,2161,2147,2140,2130,2121,2114,2106,2098,2092,2084,2074,2068,2058,2049,2042,2032,2023,2016,2008,1999,1990,1981,1972,1963,1954,1945,1937,1929,1921,1914,1906,1898,1890,1882,1877,1869,1862,1855,1847,1837,1829,1822,1811,1804,1796,1788,1781,1773,1765,1759,1752,1745,1739,1733,1724,1715,1707,1701,1694,1688,1682,1675,1669,1662,1653,1644,1637,1630,1624,1619,1615,1609,1603,1595,1590,1581,1575,1566,1563,1557,1552
0,0,0,415,409,401,393,388,385,383,383,383,383,383,384,385,385,387,386,385,385,384,383,381,379,377,375,373,371,370,368,368,366,366,365,365,364,364,364,364,364,363,363,363,362,362,362,361,361,362,362,362,362,362,361,361,360,359,359,358,357,357,357,357,357,356,355,354,353,352,352,352,353,353,354,354,355,355,355,355,356,356,357,358,359,360,362,363,0,0,0,0,0,0,0,371,366,0,0,0,0,352,353,354,356,356,357,357,357,358,358,358,359,359,359,359,360,360,360,361,361,361,361,361,362,362,363,363,363,363,363,364,364,364,365,365,365,365,365,365,365,366,366,366,366,366,366,366,366,366,367,368,369,369,369,369,369,369,369,369,369,370,370,371,371,371,371,371,371,371,372,372,373,373,374,374,374,375,375,375,375,375,375,376,376,377,377,377,377,377,377,377,377,378,378,379,379,379,380,380,380,381,381,381,382,382,382,382,382,381,381,382,382,382,383,383,383,383,383,383,383,384,385,385,385,385,384,384,384,384,385,386,386,387,387,388,388,388,389,389,389,389,389,388,388,389,389,390,390,390,390,391,391,392,393,392,393,393,393,393,394,394,394,394,394,394,394,394,394,395,395,395,396,396,396,396,396,396,396,396,397,397,397,398,398,398,398,398,399,399,399,399,399,399,400,400,400,400,401,401,401,401,401,402,402,403,403,404,403,403,403,404,404,404,405,405,405,405,405,405,406,407,407,407,407,407,407,408,408,408,408,409,409,409,409,410,410,410,411,411,411,411,412,412,413,413,413,413,413,413,413,414,413,414,414,414,415,415,415,415,415,416,416,416,416,417,417,417,417,417,418,418,418,419,419,419,419,419,420,420,421,421,421,421,422,422,423,424,424,425,425,425,425,426,426,426,427,428,427,428,428,428,428,429,429,429,429,430,430,431,431,433,436,441,439,439,0,0,0,0,0,0,0,0,0,0,3477,3473,3470,3471,3470,3472,3473,3477,3478,3479,3479,3479,3477,3478,3475,3476,3476,3477,3478,3481,3483,3481,3483,3483,3486,3485,3486,3485,3484,3485,3485,3486,3486,3487,3483,3483,3479,3475,3470,3467,3461,3455,3447,0,3415,3404,0,0,0,0,0,0,0,0,0,0,0,0,0,0,0,0,0,0,0,0,0,0,0,2912,2901,2892,2877,2864,2853,2843,2825,2808,2791,2779,2764,2756,2741,2734,2715,2707,2689,2679,2657,2646,2627,2608,2596,2584,2581,2569,2553,2543,2530,2518,2507,2502,2490,2475,2454,2445,2436,2424,2412,2402,2386,2371,2356,2346,2334,2329,2316,2308,2299,2291,2279,2270,2260,2253,2243,2234,2223,2215,2204,2199,2188,2182,2169,2161,2147,2139,2127,2121,2113,2105,2097,2091,2082,2073,2066,2057,2049,2041,2034,2026,2016,2009,1999,1990,1981,1971,1963,1955,1947,1938,1929,1920,1914,1906,1899,1892,1884,1875,1868,1861,1854,1845,1838,1830,1822,1812,1805,1795,1789,1781,1773,1766,1758,1751,1744,1737,1729,1721,1713,1705,1698,1692,1685,1680,1674,1667,1661,1654,1648,1639,1632,1626,1620,1614,1608,1603,1594,1589,1583,1576,1569,1564,1559,1554
0,0,419,418,414,407,399,395,393,392,392,392,392,393,396,400,403,406,408,410,410,408,405,401,397,392,388,385,381,378,375,373,372,370,369,368,367,367,366,365,365,364,363,363,363,363,362,362,362,362,362,362,363,362,362,362,361,361,360,359,358,358,358,357,357,357,356,354,353,352,352,352,352,353,353,353,354,354,355,355,355,356,356,357,357,359,359,361,362,0,0,0,0,0,0,371,369,0,0,0,0,352,353,355,356,356,357,357,357,358,358,358,359,359,359,359,360,360,360,360,361,361,361,361,362,362,362,363,363,364,364,364,364,364,365,365,365,365,365,365,365,366,366,367,367,367,366,366,367,367,368,368,369,369,369,369,369,369,369,370,370,370,370,371,371,371,371,371,371,371,372,372,373,373,374,374,374,374,375,375,375,375,375,376,376,376,376,376,377,377,377,377,378,378,378,379,379,380,380,380,380,380,381,381,381,381,381,381,381,381,381,381,382,383,383,383,383,383,383,383,383,384,385,385,385,385,385,385,385,385,385,385,386,386,387,387,388,388,388,389,389,388,389,389,389,389,389,390,390,390,390,391,391,392,392,392,393,393,393,393,394,393,393,394,394,394,394,394,394,394,395,395,395,395,395,395,396,396,396,397,397,397,397,398,398,398,398,398,399,399,399,399,399,399,400,400,400,401,401,401,401,401,401,402,402,403,403,403,403,403,403,403,404,404,404,405,405,405,405,405,406,406,406,407,407,407,407,408,408,409,409,409,409,409,409,410,410,410,411,411,411,411,412,412,412,413,413,413,413,413,413,413,413,414,414,415,415,415,415,415,415,416,416,416,416,416,417,417,418,418,418,418,419,419,419,419,419,419,420,420,421,421,421,421,422,422,423,424,424,425,425,425,426,426,426,426,427,427,427,428,428,428,428,429,429,429,429,429,430,430,431,433,435,440,440,0,0,0,0,0,0,0,0,0,0,3479,3472,3471,3470,3471,3472,3475,3476,3479,3479,3478,3479,3479,3480,3480,3478,3477,3479,3479,3479,3480,3483,3482,3486,3486,3488,3485,3485,3484,3486,3487,3484,3487,3487,3488,3484,3484,3481,3479,3474,3469,3463,3460,3450,3433,3418,3410,3394,0,0,0,0,0,0,0,0,0,0,0,0,0,0,0,0,0,0,0,0,0,0,2925,2903,2895,2879,2867,2854,2837,2829,2810,2800,2783,2774,2762,2747,2739,2721,2709,2695,2674,2658,2644,2629,2609,2599,2593,2584,2571,2560,2543,2533,2525,2515,2502,2489,2475,2465,2444,2436,2428,2416,2397,2388,2369,2361,2347,2338,2327,2318,2307,2301,2294,2280,2273,2260,2252,2243,2233,2222,2212,2204,2195,2186,2176,2165,2153,2143,2136,2126,2120,2112,2105,2094,2087,2080,2071,2064,2056,2048,2040,2034,2023,2016,2010,2001,1989,1980,1971,1962,1956,1948,1940,1931,1922,1913,1905,1897,1889,1882,1875,1866,1859,1853,1844,1836,1828,1821,1814,1806,1798,1790,1782,1773,1767,1758,1752,1745,1738,1731,1722,1712,1704,1698,1690,1685,1680,1675,1667,1660,1654,1646,1640,1633,1629,1622,1615,1608,1604,1595,1589,1581,1575,1568,1562,1558,1554
0,418,417,416,412,407,401,398,398,398,397,398,399,402,406,413,419,424,428,432,435,436,435,434,429,425,418,410,402,394,389,385,381,379,376,374,372,371,369,368,367,366,365,364,364,364,363,363,363,363,362,362,363,362,362,362,362,362,362,361,360,359,359,358,358,357,356,355,354,353,353,353,352,353,353,353,353,354,354,354,355,355,356,356,356,358,358,359,360,362,0,0,0,0,0,0,371,0,0,0,0,353,354,355,356,356,357,357,357,358,358,358,359,359,359,359,360,360,360,360,361,361,361,361,362,362,362,363,363,364,364,364,364,364,364,365,365,365,365,365,365,366,366,367,367,367,366,367,367,367,368,368,369,369,369,369,369,369,369,369,369,370,370,370,370,371,371,371,371,371,371,372,372,373,373,374,374,374,374,375,375,375,375,376,376,376,376,376,377,377,377,377,378,378,379,379,379,380,380,380,380,380,380,380,380,381,381,381,381,381,381,382,382,383,383,383,383,383,383,383,383,384,385,385,385,385,385,384,385,385,385,385,385,385,386,386,387,387,388,388,389,388,389,389,389,389,390,390,390,390,390,391,391,392,393,393,393,393,393,394,394,393,394,394,394,394,394,394,394,394,395,395,395,395,395,395,396,396,396,397,397,397,398,398,398,398,398,398,399,399,399,399,399,399,400,400,400,400,401,401,401,401,401,402,402,403,403,403,403,403,403,403,403,404,404,404,405,405,405,405,406,406,406,407,407,407,407,408,408,409,409,409,409,409,409,410,410,410,411,411,411,411,412,412,412,413,413,413,413,413,413,413,413,414,414,414,415,415,415,415,415,416,416,416,416,416,416,417,418,418,418,419,419,419,419,419,419,419,420,420,421,421,421,421,422,422,423,423,424,424,425,425,426,426,426,426,427,427,427,428,428,428,428,428,429,429,429,429,430,430,432,433,435,440,442,0,0,0,0,0,0,0,0,0,0,0,3474,3474,3472,3474,3476,3478,3478,3479,3481,3480,3479,3479,3479,3479,3479,3479,3478,3479,3478,3479,3483,3484,3486,3483,3488,3485,3486,3486,3487,3488,3488,3489,3489,3490,3485,3484,3482,3478,3473,3469,3466,3460,3447,3439,3420,3408,0,0,0,0,0,0,0,0,0,0,0,0,0,0,0,0,0,0,0,0,0,0,2934,2911,2897,2885,2881,2869,2851,2841,2826,2814,2797,2786,2769,2761,2741,2734,2714,2710,2687,2674,2656,2637,2622,2608,2606,2594,2581,2570,2565,2551,2537,2526,2512,2497,2488,2471,2459,2445,2437,2424,2419,2402,2387,2373,2359,2349,2339,2327,2317,2311,2303,2294,2282,2273,2262,2251,2240,2232,2222,2211,2203,2195,2186,2180,2166,2157,2143,2136,2125,2119,2110,2103,2094,2087,2080,2070,2064,2056,2049,2042,2035,2025,2018,2007,1998,1990,1981,1972,1964,1957,1949,1942,1932,1923,1915,1908,1898,1890,1880,1873,1866,1859,1854,1846,1837,1827,1821,1813,1806,1797,1790,1782,1772,1765,1759,1753,1744,1739,1731,1724,1713,1705,1697,1688,1682,1677,1672,1666,1660,1654,1647,1641,1634,1628,1622,1616,1609,1601,1595,1588,1581,1576,1570,1564,1559,1555
0,413,414,413,411,406,401,400,400,403,402,402,403,405,410,419,427,435,440,445,447,451,452,451,450,448,445,442,436,428,419,410,401,396,393,387,383,379,377,373,371,369,368,367,366,366,365,364,364,364,363,363,363,363,363,363,363,363,363,362,362,361,360,359,359,358,357,356,355,354,353,353,353,353,353,353,353,353,354,354,354,354,355,355,355,356,357,358,359,360,361,0,0,0,0,0,0,368,0,0,0,353,354,355,356,357,357,357,358,358,358,358,359,359,359,359,360,360,360,361,361,361,361,362,362,362,362,363,363,364,364,364,364,364,364,365,365,365,365,365,365,366,366,366,366,366,366,366,367,367,368,368,369,369,369,369,369,369,369,369,369,370,370,370,370,371,371,371,371,371,371,372,372,373,373,374,374,374,374,375,375,375,375,376,376,376,376,376,377,377,377,377,378,378,379,379,379,380,380,380,380,380,380,380,380,381,380,381,381,381,381,382,382,382,383,383,383,383,383,383,383,384,384,385,384,384,385,385,385,385,385,385,385,385,386,386,387,387,388,388,388,388,388,389,389,390,391,391,391,391,391,391,392,392,392,393,393,393,393,394,394,393,394,394,394,394,395,395,395,395,395,395,395,395,395,395,396,396,397,397,397,398,398,398,398,398,398,398,398,399,399,399,400,400,400,400,400,400,401,401,401,401,401,402,402,403,403,403,403,403,403,403,403,403,403,404,404,405,405,406,406,406,406,407,407,407,407,408,408,408,408,409,409,409,409,410,410,410,410,411,411,411,412,412,413,413,413,413,413,413,413,413,414,414,414,415,415,415,415,415,415,416,416,416,416,416,416,417,418,418,419,419,419,419,419,419,419,419,420,420,421,421,421,421,421,422,422,423,424,424,425,425,425,425,426,426,426,427,427,428,428,428,428,428,428,429,429,429,430,430,432,433,435,440,443,0,0,0,0,0,0,0,0,0,0,0,3474,3474,3472,3475,3477,3478,3479,3479,3479,3478,3478,3479,3479,3480,3480,3479,3479,3480,3478,3479,3482,3483,3486,3486,3487,3488,3487,3487,3487,3489,3488,3490,3487,3487,3485,3483,3483,3479,3477,3474,3471,3460,3450,3434,3423,0,0,0,0,0,0,0,0,0,0,0,0,0,0,0,0,0,0,0,0,0,0,0,2946,2918,2913,2885,2872,2862,2858,2837,2831,2815,2803,2786,2771,2757,2743,2733,2721,2709,2688,2677,2657,2641,2621,2622,2609,2600,2590,2576,2563,2552,2542,2527,2517,2502,2489,2471,2457,2447,2440,2426,2412,2397,2385,2373,2368,2352,2343,2331,2321,2311,2305,2297,2287,2274,2261,2250,2239,2230,2221,2211,2201,2193,2185,2176,2164,2156,2144,2138,2127,2121,2113,2103,2094,2087,2079,2070,2062,2055,2047,2039,2032,2022,2015,2006,1998,1990,1982,1972,1965,1957,1949,1943,1933,1925,1916,1907,1897,1890,1881,1873,1866,1860,1852,1845,1835,1827,1819,1812,1804,1797,1788,1782,1772,1767,1760,1752,1745,1741,1732,1725,1716,1706,1697,1690,1683,1678,1672,1667,1660,1654,1646,1642,1634,1629,1622,1615,1608,1601,1595,1588,1584,1576,1570,1565,1559,1555
408,410,410,411,409,405,402,403,404,407,407,406,405,407,411,420,430,439,446,451,456,460,461,461,460,458,457,455,453,450,446,442,434,428,418,413,406,398,391,385,380,376,373,370,369,368,367,366,365,365,364,363,363,363,364,363,364,364,364,364,364,362,362,361,360,360,359,357,356,355,354,353,353,353,353,353,353,353,353,353,354,354,354,354,355,356,356,357,358,358,359,361,0,0,0,0,0,370,366,0,355,355,355,355,356,357,357,357,358,358,358,359,359,359,359,359,360,360,360,361,361,361,361,362,362,362,362,362,363,363,364,364,364,364,364,364,365,365,365,365,365,365,365,366,366,366,366,366,367,367,368,368,369,369,369,369,369,369,369,369,370,370,370,371,371,371,371,371,371,371,371,372,372,373,373,374,374,374,375,375,375,375,375,375,375,376,376,376,376,377,377,378,378,378,379,379,379,380,380,380,380,380,380,380,380,381,380,380,381,381,381,381,382,382,382,383,382,382,383,383,383,384,384,384,384,385,385,385,385,386,386,385,385,385,386,386,387,388,388,388,388,388,388,389,389,390,391,392,391,392,392,391,392,392,392,393,393,393,394,394,394,393,394,394,394,394,395,395,395,395,395,395,396,396,396,396,396,396,397,397,398,398,398,398,398,398,398,398,398,398,399,399,399,400,400,401,401,401,401,401,401,401,402,401,402,402,403,403,403,403,402,402,402,403,403,404,404,405,405,406,406,406,406,407,407,407,407,408,408,408,408,408,409,409,409,409,410,410,410,411,411,411,411,412,412,412,412,413,413,413,413,413,413,414,414,415,415,415,415,415,415,416,416,416,416,416,416,417,417,418,419,419,419,419,419,419,419,419,420,420,420,421,421,421,421,421,422,423,424,424,425,425,426,426,426,426,427,427,427,428,428,428,428,428,428,428,428,429,429,430,431,433,435,440,444,446,0,0,0,0,0,0,0,0,0,0,0,3476,3474,3477,3480,3478,3479,3480,3479,3477,3479,3478,3478,3479,3481,3481,3480,3479,3479,3481,3483,3482,3483,3484,3486,3481,3485,3483,3485,3487,3487,3489,3489,3487,3486,3485,3483,3479,3478,3472,3467,3457,3446,3438,3418,0,0,0,0,0,0,0,0,0,0,0,0,0,0,0,0,0,0,0,0,0,0,0,2943,2911,2909,2886,2875,2861,2853,2838,2825,2816,2802,2788,2767,2757,2737,2728,2713,2703,2686,2676,2661,2644,2632,2621,2613,2600,2587,2576,2568,2555,2545,2525,2513,2499,2480,2466,2459,2446,2439,2424,2415,2396,2389,2375,2364,2353,2345,2334,2323,2314,2306,2297,2288,2278,2263,2252,2241,2231,2219,2210,2201,2192,2183,2173,2165,2158,2149,2139,2130,2122,2112,2104,2095,2088,2079,2069,2061,2052,2045,2038,2031,2021,2014,2005,1997,1987,1982,1974,1965,1958,1949,1942,1933,1926,1916,1908,1899,1891,1882,1874,1866,1860,1852,1845,1837,1828,1819,1812,1803,1795,1788,1781,1774,1767,1760,1754,1746,1742,1733,1727,1717,1708,1699,1690,1681,1675,1669,1663,1658,1652,1644,1638,1633,1627,1622,1615,1609,1601,1595,1589,1583,1577,1570,1564,1559,1555
408,409,410,410,410,405,402,402,405,409,410,409,407,408,411,419,429,438,447,454,458,463,465,466,465,465,463,462,461,460,458,455,451,448,445,440,436,428,421,410,400,389,384,378,375,372,370,368,367,366,365,365,364,364,364,364,364,364,365,365,365,364,364,363,362,361,361,359,358,357,355,354,354,353,353,352,352,352,353,353,353,354,354,354,355,355,355,356,357,358,358,360,361,362,0,0,0,368,366,361,357,355,355,355,356,356,357,358,358,358,359,359,359,359,359,359,360,360,360,360,361,361,361,361,362,362,362,363,363,363,364,364,364,364,364,364,364,364,364,365,365,365,365,365,366,365,366,366,367,367,368,368,369,369,369,369,369,369,369,370,370,370,370,371,371,371,371,371,371,371,371,372,372,372,373,373,373,374,374,375,375,375,375,375,375,375,376,376,376,377,377,378,378,378,378,379,379,380,380,380,380,380,380,380,380,381,380,381,381,381,381,382,382,382,382,382,382,382,382,383,383,383,384,384,384,384,385,385,385,386,386,385,385,385,386,386,387,387,387,387,388,388,388,389,389,390,391,392,392,392,392,392,392,392,392,392,393,393,393,393,393,393,393,394,394,394,395,395,395,395,396,396,396,396,396,396,396,396,397,397,398,398,398,398,398,398,398,398,398,398,398,398,399,400,400,401,401,401,401,401,402,401,401,401,402,402,402,403,403,402,402,402,402,403,404,404,405,406,406,406,406,406,406,406,407,407,408,408,408,408,408,408,409,409,409,409,410,410,410,411,411,411,411,412,412,412,412,413,412,413,413,413,414,414,414,415,414,415,415,415,415,415,416,416,416,416,417,417,418,418,419,419,419,419,419,419,419,419,420,420,421,421,421,421,421,421,422,423,424,424,425,426,426,426,426,426,427,427,427,427,428,427,428,428,428,428,429,429,430,430,431,433,435,440,443,446,0,0,0,0,0,0,0,0,0,0,0,3478,3475,3476,3477,3478,3474,3478,3478,3476,3477,3479,3480,3481,3481,3481,3480,3481,3482,3481,3482,3483,3481,3482,3484,3483,3484,3485,3485,3488,3488,3489,3491,3489,3486,3485,3486,3479,3480,3471,3466,3452,3450,3436,3418,3406,0,0,0,0,0,0,0,0,0,0,0,0,0,0,0,0,0,0,0,0,0,0,2943,2919,2897,2883,2881,2855,2846,2829,2821,2809,2801,2789,2765,2749,2737,2724,2716,2699,2689,2677,2658,2653,2640,2626,2613,2606,2593,2579,2569,2558,2545,2526,2516,2499,2484,2467,2455,2445,2438,2424,2413,2398,2389,2377,2368,2360,2346,2335,2322,2313,2305,2296,2285,2276,2264,2250,2238,2228,2220,2213,2203,2193,2184,2175,2166,2156,2148,2141,2132,2123,2115,2106,2097,2088,2078,2070,2061,2053,2045,2036,2030,2020,2013,2002,1995,1989,1983,1974,1966,1958,1948,1941,1933,1925,1916,1908,1899,1890,1882,1874,1867,1858,1850,1847,1837,1828,1820,1813,1803,1795,1790,1782,1774,1769,1761,1754,1747,1739,1733,1724,1717,1708,1700,1692,1683,1678,1671,1665,1659,1653,1645,1639,1634,1628,1622,1615,1609,1601,1597,1590,1583,1576,1571,1563,1559,1556
406,409,409,410,409,405,402,403,405,410,410,410,408,408,410,417,427,438,447,455,460,465,467,467,467,467,466,466,465,465,464,462,460,458,456,454,452,449,445,440,430,419,405,393,386,380,376,373,371,369,367,366,365,365,365,365,365,365,365,366,366,365,365,364,363,362,362,361,360,359,357,356,355,353,353,352,352,352,352,352,353,353,354,354,354,354,355,355,356,357,358,359,360,361,362,0,0,366,365,362,358,357,355,355,356,356,357,357,358,358,359,359,359,359,359,359,360,360,361,361,361,361,361,361,362,362,362,362,363,363,363,364,364,364,364,364,365,365,365,365,365,365,365,365,365,365,365,366,366,367,368,368,369,369,369,368,369,369,369,369,370,370,370,371,371,371,371,371,371,371,371,372,372,373,373,373,373,374,374,375,375,375,375,375,375,376,376,376,377,377,377,378,378,378,378,379,379,380,380,380,380,380,380,380,380,381,381,381,381,381,381,382,382,382,382,382,382,383,383,383,383,384,384,384,384,384,384,385,385,386,386,385,385,385,385,386,387,387,387,388,388,388,388,389,389,389,390,391,391,392,391,391,391,391,392,392,393,393,393,393,393,393,393,394,394,394,395,395,395,395,396,396,396,396,396,396,396,396,397,397,397,398,398,398,398,398,398,398,398,398,398,398,399,400,401,401,401,401,401,401,401,401,401,401,402,402,402,402,402,402,402,402,402,403,404,404,405,406,405,406,406,406,406,407,407,407,408,408,408,408,408,408,409,409,409,410,410,410,410,411,411,411,411,412,412,412,413,413,413,413,413,413,414,414,414,415,414,415,415,415,415,416,416,416,416,416,417,417,417,418,418,419,419,419,419,419,419,419,420,420,421,421,421,421,421,421,422,423,424,424,425,425,426,426,426,426,427,427,427,427,427,427,428,428,428,428,429,429,429,430,431,432,434,439,443,446,0,0,0,0,0,0,0,0,0,0,0,3481,3481,3478,3478,3478,3477,3477,3477,3476,3478,3480,3480,3480,3482,3480,3482,3484,3483,3483,3484,3484,3482,3481,3481,3481,3483,3483,3484,3485,3489,3489,3491,3491,3490,3486,3486,3481,3479,3472,3467,3449,3444,3433,3414,0,0,0,0,0,0,0,0,0,0,0,0,0,0,0,0,0,0,0,0,0,0,0,2938,2918,2904,2891,2872,2873,2845,2821,2814,2813,2801,2792,2771,2751,2738,2723,2712,2694,2685,2676,2663,2650,2641,2625,2615,2602,2590,2574,2566,2552,2541,2522,2506,2492,2479,2465,2457,2446,2439,2420,2412,2398,2389,2379,2367,2355,2346,2335,2323,2313,2305,2294,2284,2274,2262,2251,2240,2232,2223,2214,2205,2193,2181,2171,2164,2156,2148,2141,2134,2124,2116,2107,2097,2090,2079,2069,2060,2053,2046,2036,2032,2022,2014,2003,1996,1988,1982,1973,1966,1957,1948,1940,1931,1924,1915,1907,1900,1892,1883,1876,1866,1859,1850,1845,1837,1830,1822,1814,1804,1797,1789,1781,1773,1767,1761,1751,1745,1738,1731,1723,1716,1707,1701,1693,1684,1677,1671,1664,1658,1652,1647,1639,1634,1627,1621,1614,1608,1602,1597,1590,1583,1576,1569,1562,1558,1554
406,410,411,413,410,405,401,401,402,408,411,410,408,408,409,416,425,437,447,455,460,465,467,468,468,468,467,467,467,467,466,465,464,463,462,461,460,459,457,454,450,444,436,423,410,396,387,381,377,373,370,369,367,367,366,366,366,366,366,367,367,366,366,366,365,364,364,363,362,361,359,357,356,354,353,352,352,352,352,352,353,353,353,354,354,354,354,355,356,356,357,358,359,359,360,362,363,364,364,362,359,357,356,355,356,356,356,357,357,358,358,359,359,359,359,359,360,360,361,361,361,361,361,361,362,362,362,362,363,363,363,364,364,364,364,364,365,365,365,365,366,365,365,366,365,365,366,366,366,367,367,368,368,369,369,368,369,369,369,369,370,370,370,371,371,371,371,371,371,371,371,372,372,373,374,374,374,374,374,374,375,375,375,375,375,376,376,376,376,377,377,378,378,378,378,379,379,379,380,380,380,380,380,380,381,381,381,381,381,381,381,382,382,382,382,382,382,383,383,383,383,384,384,384,384,384,384,385,385,386,385,385,385,386,386,386,386,386,386,387,387,388,388,389,389,389,389,390,391,391,391,391,391,391,391,392,392,393,393,393,394,393,393,393,394,394,394,395,395,395,396,396,397,397,397,396,396,396,396,396,397,397,397,397,398,398,398,398,398,398,398,398,399,400,400,401,401,401,402,402,402,401,401,401,401,402,402,402,402,402,402,402,403,403,404,404,405,405,405,406,406,406,406,407,407,407,408,408,408,408,409,408,408,409,409,409,410,410,410,411,411,411,411,412,412,412,412,412,412,413,413,413,414,414,414,415,415,415,415,415,415,416,416,416,416,416,417,417,417,418,418,418,419,419,419,419,419,419,420,420,421,421,421,421,421,421,422,423,424,424,425,425,425,426,426,426,427,427,427,427,427,427,428,428,428,428,428,429,429,430,430,432,435,439,442,444,445,0,0,0,0,0,0,0,0,0,0,0,3475,3477,3474,3475,3475,3476,3477,3478,3480,3483,3482,3480,3482,3483,3481,3485,3484,3485,3486,3484,3482,3483,3482,3482,3484,3484,3484,3485,3486,3488,3490,3488,3488,3485,3484,3480,3478,3472,3466,3452,3440,0,3415,3402,0,0,0,0,0,0,0,0,0,0,0,0,0,0,0,0,0,0,0,0,0,0,0,2912,2901,2893,2876,2857,2857,2823,2820,2810,2800,2790,2773,2755,2742,2723,2714,2697,2690,2669,2662,2649,2640,2622,2614,2601,2589,2582,2565,2548,2538,2528,2509,2498,2476,2470,2457,2445,2431,2424,2410,2397,2382,2377,2369,2358,2344,2331,2320,2311,2299,2291,2283,2272,2257,2248,2242,2231,2224,2215,2206,2196,2184,2173,2160,2155,2145,2138,2132,2124,2114,2107,2096,2086,2078,2067,2060,2052,2047,2039,2032,2022,2013,2005,1996,1988,1980,1973,1963,1957,1948,1940,1931,1924,1915,1908,1900,1893,1884,1874,1865,1857,1849,1844,1837,1831,1824,1815,1806,1797,1789,1781,1773,1767,1761,1752,1745,1735,1729,1721,1715,1707,1700,1694,1686,1678,1671,1665,1658,1652,1646,1639,1634,1627,1621,1614,1608,1602,1596,1589,1583,1575,1568,1560,1556,1552
405,409,410,412,409,403,400,400,402,407,411,411,409,410,410,416,425,437,447,456,461,465,467,468,469,469,468,468,468,468,467,467,466,465,465,464,464,463,463,461,459,455,451,444,435,422,408,396,388,381,376,372,370,369,368,368,368,368,368,368,368,367,367,367,366,365,365,364,364,363,362,360,358,355,354,353,352,352,352,352,353,353,353,353,354,354,354,354,355,356,356,357,358,358,359,360,361,362,362,362,360,358,357,356,355,355,356,357,357,358,358,358,358,359,359,360,360,360,361,361,361,361,361,361,362,362,362,363,363,363,363,364,364,364,364,364,365,365,365,365,365,365,366,366,365,366,366,366,366,366,367,367,368,369,368,368,368,368,368,369,369,370,370,371,371,371,371,371,371,371,372,372,373,373,374,374,374,374,374,374,375,375,375,375,375,376,376,377,376,377,377,378,377,378,378,379,379,379,380,380,380,380,380,380,381,381,381,381,381,381,381,381,381,382,382,382,382,383,383,383,383,384,384,384,384,384,384,384,384,385,385,385,385,386,385,385,386,385,386,386,387,387,388,388,388,388,389,390,390,390,391,391,391,391,391,392,392,393,393,393,393,393,393,393,394,394,394,394,395,395,396,396,397,397,396,396,396,396,396,396,397,397,397,397,398,398,398,398,397,397,398,398,399,400,400,401,401,401,402,402,402,401,401,401,401,401,402,402,402,402,402,402,403,404,404,404,405,406,406,406,406,406,406,407,408,408,408,409,409,408,408,408,408,409,409,409,410,410,410,411,411,411,411,411,412,412,412,412,412,413,413,413,414,414,414,415,415,415,415,415,415,416,416,416,416,416,417,417,417,418,418,418,418,419,419,419,419,419,420,420,421,421,421,421,421,421,422,423,424,424,425,425,425,425,426,426,427,427,427,427,427,427,428,428,428,428,428,428,429,429,430,432,434,438,441,443,445,0,0,0,0,0,0,0,0,0,0,0,3476,3476,3476,3476,3475,3477,3478,3479,3482,3482,3483,3480,3481,3482,3485,3485,3489,3489,3487,3489,3485,3484,3482,3481,3483,3483,3485,3484,3487,3487,3492,3490,3489,3487,3486,3480,3480,3476,3467,3457,3441,3427,3419,3403,0,0,0,0,0,0,0,0,0,0,0,0,0,0,0,0,0,0,0,0,0,0,0,2918,2910,2904,2883,2855,2851,2835,2821,2809,2803,2792,2773,2752,2742,2727,2720,2702,2686,2669,2661,2641,2632,2623,2614,2596,2582,2574,2557,2548,2537,2523,2500,2486,2474,2468,2458,2448,2434,2420,2403,2394,2386,2374,2366,2356,2343,2331,2319,2311,2301,2291,2280,2268,2257,2248,2242,2233,2225,2217,2207,2194,2181,2174,2161,2153,2145,2138,2130,2124,2115,2106,2097,2086,2077,2069,2061,2055,2048,2040,2034,2025,2016,2006,1998,1989,1980,1971,1965,1957,1947,1940,1930,1921,1913,1907,1898,1893,1884,1875,1866,1856,1850,1845,1838,1830,1824,1816,1806,1797,1789,1779,1771,1766,1760,1752,1746,1737,1730,1722,1716,1707,1700,1692,1685,1679,1672,1665,1659,1650,1645,1638,1632,1626,1621,1615,1609,1603,1596,1589,1581,1575,1567,1561,1557,1553
400,407,410,412,409,403,399,398,400,406,410,412,410,411,412,417,425,438,448,456,461,464,467,468,469,469,469,468,468,468,467,468,467,467,466,466,466,465,465,464,463,461,459,455,449,442,431,419,408,394,386,379,375,373,372,371,370,370,369,369,369,368,369,368,367,366,366,365,365,364,363,362,360,358,355,354,353,352,352,352,353,353,353,353,353,353,353,354,355,355,356,357,357,357,358,359,360,360,361,361,360,358,357,356,355,355,356,356,357,358,358,358,359,359,359,359,360,360,361,361,361,361,362,362,362,362,362,363,363,363,363,363,364,364,364,364,365,365,365,365,365,365,366,366,366,366,366,366,366,367,367,367,368,368,368,368,368,368,368,369,369,370,370,371,371,371,370,371,371,371,371,372,373,373,374,374,374,374,374,374,374,375,375,375,375,376,376,377,377,377,377,377,377,378,378,379,379,379,380,380,380,380,380,380,381,381,381,381,381,381,381,381,382,382,382,382,383,383,383,383,383,384,384,384,384,384,383,383,384,384,384,385,385,385,385,385,385,385,386,386,387,387,388,388,388,388,389,389,390,390,390,390,390,390,391,392,392,393,393,393,393,393,393,394,394,394,394,394,394,395,395,396,396,396,396,396,396,396,396,396,397,397,397,397,398,398,399,398,398,398,398,398,399,399,400,400,400,401,401,401,401,401,401,401,401,401,401,401,401,401,402,402,403,404,404,404,405,405,405,406,406,406,406,407,407,408,408,409,408,408,408,408,408,409,409,410,410,410,410,410,410,411,411,411,412,412,412,412,413,413,413,413,414,414,414,415,415,415,415,416,415,416,416,416,416,416,416,417,417,418,418,418,418,419,419,419,419,419,420,420,420,421,421,421,421,422,422,423,424,424,425,424,425,425,425,426,427,427,427,427,427,427,428,428,428,429,429,429,429,430,431,432,435,439,442,443,445,0,0,0,0,0,0,0,0,0,0,0,3474,3473,3472,3475,3474,3478,3479,3481,3482,3483,3482,3479,3478,3481,3482,3485,3485,3488,3487,3487,3486,3485,3482,3482,3483,3484,3484,3484,3485,3484,3487,3488,3485,3485,3484,3481,3480,3478,3473,3460,3442,3428,3416,3397,0,0,0,0,0,0,0,0,0,0,0,0,0,0,0,0,0,0,0,0,0,0,0,2915,2909,2891,2893,2868,2856,2838,2828,2810,2800,2785,2774,2767,2747,2732,2718,2713,2693,2673,2656,2641,2628,2618,2607,2597,2585,2575,2561,2554,2537,2527,2506,2499,2474,2467,2456,2450,2437,2419,2405,2392,2382,2376,2365,2356,2341,2332,2318,2308,2300,2290,2277,2263,2257,2248,2243,2232,2225,2216,2206,2197,2187,2177,2163,2155,2143,2137,2129,2123,2114,2108,2097,2087,2077,2068,2063,2057,2049,2041,2034,2025,2015,2006,1997,1990,1978,1971,1964,1957,1947,1940,1932,1923,1913,1907,1899,1892,1882,1874,1865,1856,1850,1844,1838,1830,1825,1817,1806,1797,1787,1777,1769,1765,1760,1752,1745,1737,1729,1721,1714,1706,1700,1693,1685,1680,1674,1667,1658,1652,1645,1638,1632,1629,1622,1616,1610,1603,1595,1590,1581,1576,1568,1561,1556,1551
393,401,405,409,407,401,399,398,400,405,411,413,412,413,414,419,426,438,447,455,460,463,466,468,469,469,469,468,469,469,468,468,468,468,467,467,467,467,467,466,465,464,462,460,457,452,447,438,429,417,404,392,385,381,379,378,375,374,373,372,371,370,370,369,368,367,366,366,365,365,364,363,362,360,358,356,354,353,352,352,353,353,352,353,353,353,353,354,354,355,355,356,356,356,357,358,359,359,360,360,360,359,358,357,356,355,356,356,357,357,358,358,359,359,359,359,360,360,361,361,361,361,362,362,362,362,362,363,363,363,363,363,364,364,364,364,365,365,365,365,365,366,366,366,366,366,366,366,366,367,367,367,367,368,368,368,368,368,368,368,369,369,370,370,371,371,371,371,371,371,372,372,373,373,374,374,374,374,374,374,374,374,375,375,376,376,376,377,377,377,377,378,378,378,379,379,379,379,379,379,380,379,380,380,380,381,381,381,381,381,381,381,382,382,382,382,383,383,384,384,384,384,384,384,384,383,383,383,383,384,384,384,385,385,385,385,385,385,386,386,386,387,388,388,388,388,389,389,390,390,390,390,390,391,391,392,392,392,393,393,393,393,394,394,394,394,394,393,393,394,395,395,396,396,396,396,396,396,396,397,397,397,397,397,397,398,398,398,398,398,398,398,399,399,400,400,400,400,401,401,401,401,401,401,401,401,401,401,401,401,402,402,403,403,404,404,405,405,405,406,406,406,406,407,407,408,408,408,408,408,408,408,408,409,409,409,410,410,410,410,410,411,411,411,411,412,412,412,413,413,413,413,414,414,414,415,415,415,416,416,416,416,416,416,416,416,416,417,417,417,418,418,418,419,419,419,419,420,420,420,421,421,421,421,421,421,422,423,424,424,424,424,424,425,425,425,426,427,427,427,427,428,428,428,429,429,429,429,429,429,430,432,435,438,441,442,444,446,0,0,0,0,0,0,0,0,0,0,3480,3477,3473,3477,3476,3478,3480,3481,3479,3480,3479,3477,3480,3482,3481,3486,3487,3486,3489,3488,3487,3487,3484,3484,3485,3486,3487,3486,3484,3485,3486,3486,3484,3485,3485,3483,3481,3479,3476,3460,3448,3433,3412,3391,0,0,0,0,0,0,0,0,0,0,0,0,0,0,0,0,0,0,0,0,0,0,0,2919,2912,2895,2886,2877,2852,2835,2825,2811,2795,2781,2773,2759,2748,2736,2722,2708,2699,2683,2656,2646,2631,2617,2609,2598,2585,2570,2563,2554,2534,2518,2505,2487,2476,2469,2461,2452,2442,2418,2408,2397,2384,2375,2367,2355,2344,2333,2320,2311,2299,2290,2279,2265,2258,2249,2244,2235,2225,2217,2205,2195,2186,2176,2167,2156,2145,2137,2129,2123,2113,2108,2096,2087,2078,2069,2062,2057,2049,2040,2033,2026,2017,2010,1999,1988,1979,1972,1963,1956,1949,1939,1930,1923,1915,1908,1900,1893,1884,1875,1865,1855,1849,1841,1837,1827,1822,1815,1807,1797,1786,1778,1769,1763,1759,1751,1745,1736,1730,1723,1714,1706,1700,1693,1686,1679,1674,1667,1657,1650,1645,1636,1631,1627,1621,1615,1609,1605,1595,1589,1582,1577,1568,1562,1556,1552
388,397,402,407,406,402,399,399,401,406,412,415,414,415,416,421,428,440,448,455,459,463,466,468,469,469,469,469,469,468,468,468,468,468,468,468,467,467,467,467,466,465,464,463,461,458,454,448,441,432,423,409,402,396,391,388,386,382,380,378,375,374,373,372,370,369,368,367,366,365,365,365,364,362,361,358,357,355,354,353,353,352,352,352,353,353,353,353,354,354,355,355,355,355,356,356,357,358,359,359,359,359,358,357,356,355,355,356,356,357,358,358,359,359,360,360,360,360,361,361,361,362,362,362,362,362,363,363,363,363,363,363,363,364,364,364,365,365,365,365,365,365,366,366,366,366,366,366,366,367,367,367,367,368,368,368,368,368,368,368,369,369,370,370,371,371,371,371,371,371,372,372,372,373,373,373,373,373,374,373,374,374,374,375,375,376,376,377,377,377,377,378,378,378,379,379,379,379,379,379,380,380,380,379,380,380,380,380,381,381,381,381,382,382,382,383,383,383,384,384,384,384,384,384,384,383,383,382,383,383,384,384,385,385,385,385,385,385,386,386,387,387,387,388,388,388,389,389,390,390,390,390,390,391,391,392,393,393,393,393,393,393,394,394,394,394,393,393,393,394,395,395,396,396,396,396,396,396,396,397,397,397,397,397,397,398,398,398,398,398,398,398,399,399,399,400,400,400,401,401,401,401,401,401,401,401,401,401,401,402,402,402,403,403,403,404,405,405,405,406,406,406,406,407,408,408,408,409,408,408,408,408,408,408,409,409,409,410,410,410,410,411,411,411,411,412,412,412,413,413,413,413,413,414,414,414,415,415,415,416,416,416,416,416,416,416,417,417,417,417,418,418,418,418,419,419,419,419,420,420,421,421,421,421,421,422,422,422,423,424,424,424,424,424,424,425,426,426,427,427,427,427,428,428,428,428,429,429,429,429,431,432,435,438,441,442,443,444,0,0,0,0,0,0,0,0,0,0,3486,3482,3475,3477,3477,3480,3479,3481,3476,3478,3475,3475,3478,3482,3483,3485,3486,3485,3486,3487,3487,3487,3485,3485,3484,3485,3487,3487,3484,3483,3484,3484,3484,3486,3486,3483,3483,3480,3470,3455,3453,3430,3414,0,0,0,0,0,0,0,0,0,0,0,0,0,0,0,0,0,0,0,0,0,0,0,0,0,2904,2892,2878,2868,2858,2841,2818,2804,2794,2782,2773,2766,2752,2742,2720,2710,2700,2676,2671,2646,2632,2621,2609,2598,2587,2576,2566,2550,2537,2527,2503,2497,2480,2467,2460,2451,2433,2422,2405,2394,2385,2373,2364,2353,2340,2330,2323,2313,2301,2286,2278,2268,2258,2250,2245,2235,2226,2216,2206,2195,2187,2179,2166,2158,2146,2137,2129,2123,2114,2107,2097,2087,2077,2070,2063,2056,2049,2041,2033,2026,2015,2010,1999,1989,1979,1971,1963,1955,1948,1941,1933,1924,1918,1912,1902,1894,1885,1874,1865,1855,1850,1841,1836,1829,1824,1815,1806,1796,1787,1778,1769,1765,1759,1751,1745,1736,1729,1721,1714,1705,1699,1693,1685,1679,1672,1666,1657,1651,1644,1637,1632,1627,1621,1616,1608,1603,1594,1590,1583,1578,1568,1562,1556,1552
382,391,396,402,404,402,401,402,405,409,414,416,416,416,418,423,431,441,448,455,459,463,466,468,469,469,469,468,469,468,468,468,468,468,468,468,467,467,467,467,466,466,465,465,464,462,459,454,448,441,433,426,418,414,411,409,405,400,396,389,384,381,377,375,373,372,370,368,367,366,366,365,365,364,363,361,360,357,356,354,354,353,352,352,352,352,352,353,353,353,354,354,354,354,355,355,356,357,358,358,359,358,359,357,357,356,356,356,356,357,358,359,359,359,360,360,360,360,361,361,361,361,362,362,362,362,363,363,363,363,363,363,363,364,364,364,365,365,365,365,365,365,365,366,366,366,367,366,366,366,366,367,367,368,368,367,368,368,368,368,369,369,370,370,371,371,371,372,371,371,372,372,372,373,373,373,373,373,374,373,374,374,375,375,376,376,376,377,377,377,377,378,378,378,379,379,379,379,379,379,380,380,380,379,380,380,380,380,381,381,381,381,382,382,382,383,383,383,383,384,384,384,384,384,384,383,383,382,383,383,384,384,385,385,385,386,386,386,386,386,387,387,387,387,388,389,389,389,390,389,389,390,390,391,391,392,393,393,393,393,393,393,394,394,394,394,394,393,394,394,395,395,396,396,396,396,396,397,397,397,397,397,397,397,397,398,399,398,398,398,398,398,398,399,399,400,400,400,401,401,401,401,401,401,401,401,401,401,401,401,402,402,403,403,403,404,405,405,405,406,406,406,406,407,408,408,408,408,408,408,408,408,408,408,409,410,410,410,410,410,410,411,411,411,411,412,412,413,413,413,413,413,413,414,414,414,414,415,415,416,416,416,416,416,416,416,417,417,417,417,418,418,418,418,418,419,419,420,420,420,421,421,421,421,422,422,422,422,423,423,424,424,424,424,424,425,425,426,427,427,427,428,428,428,429,429,429,429,429,430,431,432,435,438,441,442,443,445,0,0,0,0,0,0,0,0,0,0,3494,3485,3478,3477,3476,3478,3479,3478,3475,3474,3475,3476,3479,3483,3487,3484,3485,3484,3485,3484,3487,3486,3485,3485,3487,3487,3486,3489,3486,3486,3485,3485,3484,3485,3484,3484,3481,3477,3469,0,3447,3426,3409,3395,0,0,0,0,0,0,0,0,0,0,0,0,0,0,0,0,0,0,0,0,0,0,0,2921,2904,2889,2872,2865,2849,2838,2810,2796,2788,2781,2770,2761,2750,2734,2721,2705,2695,2684,2665,2654,2637,2624,2608,2599,2591,2575,2568,2551,2537,2518,2505,2492,2483,2472,2460,2448,2436,2421,2411,2396,2388,2375,2366,2354,2345,2334,2325,2312,2302,2288,2278,2267,2257,2250,2244,2236,2227,2218,2207,2197,2188,2179,2171,2160,2150,2141,2131,2124,2114,2107,2095,2087,2079,2072,2063,2056,2048,2039,2032,2024,2015,2007,1999,1989,1979,1972,1964,1958,1946,1939,1931,1923,1917,1912,1904,1896,1887,1876,1866,1857,1852,1841,1835,1827,1822,1812,1804,1796,1787,1780,1773,1765,1758,1751,1745,1737,1730,1720,1714,1706,1699,1693,1685,1680,1674,1666,1658,1653,1647,1640,1634,1628,1621,1615,1609,1603,1596,1591,1583,1579,1567,1561,1554,1551
379,388,392,399,402,403,402,404,407,410,413,416,417,417,418,423,431,441,447,455,460,463,466,468,469,469,468,468,468,468,468,468,468,468,468,468,467,467,467,467,466,466,466,465,465,463,460,456,451,444,437,433,428,425,425,427,427,426,422,415,405,395,387,383,380,377,374,371,369,367,366,366,365,365,364,363,362,360,358,356,355,354,353,352,352,352,352,353,353,353,353,353,354,354,354,355,356,356,357,357,358,358,359,358,357,356,356,356,357,357,358,358,359,359,360,360,360,361,361,361,361,361,361,361,362,362,363,363,363,363,363,363,363,364,364,364,364,364,364,365,365,365,366,366,366,367,367,367,366,367,367,367,367,368,367,367,367,368,368,368,369,369,370,370,371,371,372,372,372,372,372,372,372,373,373,373,373,373,373,373,373,374,375,375,376,377,376,377,377,377,377,377,378,378,379,379,379,379,379,380,380,380,380,379,379,379,380,380,381,381,382,382,382,382,382,383,383,383,384,384,384,384,384,384,383,383,383,383,383,383,384,384,385,385,385,386,386,386,386,387,387,387,387,387,388,389,389,389,390,389,389,390,390,390,391,392,392,393,393,393,393,393,394,394,394,394,394,394,394,394,395,395,396,396,396,396,397,397,397,397,397,397,397,397,397,398,399,399,398,398,398,397,398,399,399,399,400,400,400,401,401,401,401,401,402,402,402,402,402,402,402,402,402,403,403,404,405,405,405,406,406,406,407,407,407,407,408,408,408,408,408,408,408,409,409,409,409,410,410,410,410,411,411,411,411,412,412,413,413,413,413,413,413,413,413,414,414,415,415,415,415,416,415,416,416,416,417,417,417,418,418,418,418,418,419,419,419,420,420,421,421,421,421,421,422,421,422,422,423,423,423,423,424,424,424,425,425,426,426,426,427,427,428,428,428,429,429,429,429,430,431,432,435,438,441,442,443,444,445,0,0,0,0,0,0,0,0,0,0,3490,3483,3481,3478,3479,3479,3479,3476,3475,3477,3478,3482,3484,3489,3487,3487,3483,3484,3483,3486,3485,3484,3485,3485,3486,3487,3489,3487,3487,3486,3484,3485,3485,3486,3486,3482,3473,3469,3449,0,3435,3413,3393,0,0,0,0,0,0,0,0,0,0,0,0,0,0,0,0,0,0,0,0,0,0,0,2930,2894,2883,2870,2862,2844,2830,2812,2804,2789,2784,2775,2762,2749,2740,2721,2706,2692,0,2664,2651,2637,2629,2619,2599,2591,2575,2563,2553,2540,2520,2510,2496,2484,2472,2456,2444,2434,2419,2410,2401,2385,2370,2363,2353,2345,2333,2324,2311,2301,2291,2278,2269,2258,2251,2244,2236,2225,2216,2204,2194,2186,2177,2168,2159,2150,2142,2134,2125,2115,2107,2098,2088,2081,2072,2065,2058,2050,2040,2031,2024,2015,2007,1998,1989,1979,1972,1962,1956,1949,1941,1933,1926,1920,1914,1905,1896,1887,1877,1867,1858,1851,1841,1835,1828,1820,1812,1803,1796,1789,1780,1773,1764,1758,1750,1745,1737,1729,1720,1714,1705,1700,1694,1686,1680,1674,1667,1658,1654,1648,1641,1634,1629,1621,1613,1607,1602,1597,1591,1582,1576,1565,1559,1552,1548
377,382,388,394,398,402,403,405,408,411,414,416,416,417,418,423,430,440,447,454,459,463,465,468,468,468,468,468,467,467,468,468,468,468,467,467,467,468,467,467,467,467,466,466,466,464,461,457,452,445,439,434,430,430,432,437,441,444,444,441,433,421,410,399,392,386,381,377,373,370,368,366,366,365,365,365,363,362,360,358,357,355,354,353,353,352,352,352,352,352,353,353,353,353,354,355,355,356,357,357,357,358,358,358,358,357,357,356,357,357,358,358,359,359,359,360,360,360,360,361,361,361,361,361,362,362,362,363,363,363,364,364,364,364,364,364,364,364,364,365,365,365,366,366,366,366,367,366,366,366,367,367,367,368,368,368,368,368,368,368,369,369,370,370,371,371,371,372,372,372,372,372,373,373,373,373,373,373,373,373,373,374,375,375,376,377,376,377,377,377,377,377,378,378,379,379,379,379,379,379,380,380,380,379,379,380,380,380,381,382,382,382,382,382,382,383,383,383,383,384,384,383,384,384,383,384,383,383,384,384,384,384,385,385,385,386,386,386,386,387,387,386,386,387,388,388,389,389,389,389,389,390,390,391,391,392,392,393,393,393,393,393,393,393,393,393,393,393,394,394,395,395,396,396,396,396,397,397,397,397,398,397,397,397,397,398,400,399,399,398,398,398,398,399,399,399,400,400,400,401,401,401,401,401,402,402,403,402,402,402,402,402,402,403,403,404,405,406,406,406,406,406,407,407,407,407,408,408,408,408,408,408,408,409,409,409,409,409,409,410,410,411,411,411,411,412,412,412,412,413,413,412,413,413,413,413,414,414,415,415,415,415,415,416,416,416,417,417,417,417,418,418,418,418,419,419,420,420,420,421,421,421,421,421,421,421,422,422,423,423,423,423,423,424,424,425,425,426,426,426,427,427,428,428,428,428,429,429,429,430,431,432,434,438,441,442,443,444,446,0,0,0,0,0,0,0,0,0,0,0,3484,3480,3480,3479,3480,3479,3478,3476,3479,3479,3484,3485,3491,3487,3488,3485,3485,3483,3487,3486,3486,3487,3488,3488,3490,3492,3490,3489,3487,3487,3486,3486,3486,3486,3481,3475,3462,3454,3443,3436,3424,3398,0,0,0,0,0,0,0,0,0,0,0,0,0,0,0,0,0,0,0,0,0,2952,2935,2930,2900,2886,2873,2861,2841,2825,2813,2800,2790,2779,2777,2764,2745,2733,2720,2703,2697,2679,2669,2649,2641,2629,2614,2604,2589,2578,2568,2549,2535,2519,2511,2495,2484,2470,2460,2442,2431,2421,2411,2399,2389,2375,2365,2353,2346,2332,2321,2311,2298,2289,2279,2270,2259,2253,2243,2236,2225,2216,2205,2195,2186,2176,2170,2157,2150,2141,2133,2126,2114,2107,2098,2090,2083,2075,2066,2056,2049,2037,2032,2021,2014,2005,1997,1988,1980,1972,1964,1958,1947,1941,1931,1926,1919,1914,1905,1898,1889,1878,1870,1862,1853,1842,1834,1826,1817,1810,1803,1795,1789,1782,1772,1765,1758,1749,1744,1737,1729,1721,1713,1705,1699,1695,1687,1681,1675,1666,1658,1654,1648,1642,1635,1629,1620,1613,1606,1600,1595,1590,1582,1576,1564,1559,1552,1549
373,378,383,389,394,399,402,406,409,411,414,416,417,417,419,424,431,439,448,456,460,463,466,468,468,468,468,468,467,467,467,467,467,467,467,467,467,467,467,467,467,467,467,467,467,465,462,458,452,445,437,431,428,427,432,440,448,453,456,455,453,448,441,430,419,407,398,388,381,376,371,369,367,366,365,365,364,364,363,361,359,358,356,354,353,352,352,352,352,352,352,352,352,353,353,354,354,355,356,356,357,357,357,358,358,357,357,356,357,357,358,358,359,359,359,360,360,360,360,361,361,361,361,361,362,362,362,363,363,363,363,364,364,364,364,364,364,364,364,365,365,365,366,366,366,366,367,366,366,366,367,367,367,368,368,368,368,368,368,368,369,369,370,370,371,371,371,372,372,372,372,373,373,373,373,373,373,373,373,373,373,374,375,375,376,376,376,376,376,376,377,377,377,378,379,379,379,379,379,380,380,380,380,380,380,380,380,381,382,382,382,382,382,382,382,382,383,383,383,383,384,384,384,384,384,384,384,384,384,384,384,384,385,385,385,386,386,386,386,387,387,386,387,387,388,388,389,389,389,389,389,390,390,390,391,392,392,393,392,392,392,392,393,393,394,393,393,393,394,394,395,395,396,396,396,396,397,397,397,397,398,398,397,398,398,399,400,400,399,398,398,398,398,399,399,400,400,400,400,401,401,401,401,401,402,402,403,403,403,403,403,403,402,403,403,404,405,406,406,406,406,406,406,407,407,407,407,408,408,408,408,408,408,409,409,409,409,409,409,410,410,411,411,411,411,411,411,412,412,413,413,412,413,413,413,413,414,414,414,415,415,416,416,416,416,416,417,417,417,417,418,418,418,419,419,419,420,420,420,421,421,421,421,421,421,422,422,422,422,423,423,423,423,424,424,425,425,426,426,426,427,427,427,428,428,428,429,429,429,430,431,432,434,438,441,442,443,444,447,0,0,0,0,0,0,0,0,0,0,0,3489,3479,3481,3479,3481,3481,3481,3479,3480,3481,3485,3487,3491,3487,3488,3486,3484,3482,3486,3485,3486,3487,3488,3486,3488,3490,3490,3488,3489,3488,3491,3490,3489,3487,3481,3473,3462,3456,3441,0,3413,3393,0,0,0,0,0,0,0,0,0,0,0,0,0,0,0,0,0,0,0,0,0,0,2939,2929,2909,2901,2873,2855,2846,2827,2809,2803,2792,2784,2771,2762,2752,2726,2720,2709,2696,2678,2660,2653,2641,2630,2622,2606,2593,2575,2564,2543,2534,2518,2507,2495,2484,2467,2453,2441,2429,2420,2409,2401,2390,2380,2367,2354,2342,2332,2317,2309,2297,2290,2279,2271,2260,2253,2242,2235,2223,2213,2203,2194,2187,2177,2169,2158,2149,2141,2132,2124,2117,2107,2098,2091,2083,2076,2068,2059,2052,2039,2031,2022,2014,2006,1999,1989,1981,1972,1963,1955,1946,1939,1933,1925,1919,1912,1904,1896,1889,1880,1870,1863,1856,1845,1835,1827,1818,1809,1802,1794,1786,1781,1772,1763,1758,1751,1745,1738,1730,1721,1714,1705,1699,1693,1687,1680,1673,1666,1658,1655,1648,1643,1636,1629,1620,1613,1605,1600,1594,1587,1581,1573,1566,1559,1554,1550
370,375,379,384,391,397,401,406,410,412,415,417,418,418,420,424,431,439,447,455,460,463,466,468,468,467,467,467,466,467,467,467,467,467,466,466,467,467,467,467,466,467,467,467,467,466,463,459,453,445,436,428,423,422,427,437,448,457,462,464,464,461,458,454,448,439,429,413,397,385,378,373,369,367,366,365,365,364,364,362,361,360,358,356,354,353,352,352,352,351,352,352,353,353,354,354,354,355,355,356,356,356,357,357,358,357,357,357,357,357,358,358,359,359,359,359,360,360,360,360,361,361,361,361,362,362,362,363,363,363,363,363,363,364,364,364,364,364,364,365,365,365,366,366,366,366,366,366,366,366,366,367,367,368,369,369,368,368,368,369,369,369,370,370,370,371,371,371,372,372,372,372,373,373,373,373,373,373,373,373,374,374,375,376,376,376,376,376,376,376,376,377,377,378,378,379,379,379,379,380,380,380,380,380,380,380,381,381,382,382,382,382,382,382,382,383,383,383,383,383,384,383,384,384,384,384,384,384,384,384,384,384,385,385,386,386,386,386,386,387,387,387,387,387,388,389,389,390,390,389,389,390,390,391,392,392,393,392,392,392,392,393,393,394,394,393,393,393,394,394,395,396,396,396,396,396,396,397,396,397,398,398,398,400,400,400,400,401,399,399,399,399,399,399,399,400,400,400,400,401,401,401,401,401,402,402,403,403,403,403,403,403,403,404,403,404,405,405,405,406,406,406,406,406,406,406,407,407,408,408,409,408,409,409,409,410,410,410,409,410,410,411,410,411,411,411,411,412,412,413,413,413,413,413,413,414,414,414,415,415,415,415,415,415,416,416,416,417,417,417,418,418,418,419,419,420,420,420,420,420,420,420,421,421,421,422,422,422,422,423,423,423,424,424,424,425,425,426,426,426,427,427,428,428,428,428,429,429,429,429,430,432,434,437,441,442,443,446,450,0,0,0,0,0,0,0,0,0,0,3487,3484,3477,3480,3480,3481,3482,3484,3482,3483,3483,3484,3485,3488,3487,3488,3486,3485,3483,3486,3484,3487,3486,3488,3487,3490,3490,3491,3491,3490,3489,3489,3489,3487,3487,3482,3474,3463,3452,3441,3430,3409,3392,3390,0,0,0,0,0,0,0,0,0,0,0,0,0,0,0,0,0,0,0,0,0,2948,2926,2929,2909,2876,2863,2843,2825,2812,2806,2795,2787,2771,2759,2745,2730,2722,2704,2691,2675,2656,2646,2640,2632,2615,2599,2589,2576,2561,2547,2527,2518,2507,2496,2481,2471,2454,2439,2429,2419,2411,2403,2391,2378,2368,2356,2340,2328,2317,0,2296,2288,2280,2272,2262,2255,2244,2234,2223,2214,2203,2195,2189,2179,2167,2158,2148,2138,2132,2123,2114,2106,2098,2091,2084,2075,2068,2060,2051,2040,2032,2023,2015,2006,1998,1989,1981,1973,1962,1953,1945,1937,1930,1924,1917,1911,1902,1895,1889,1880,1870,1863,1855,1844,1835,1827,1817,1810,1801,1795,1785,1780,1771,1766,1757,1751,1744,1738,1731,1722,1715,1706,1699,1694,1688,1680,1673,1665,1658,1653,1647,1642,1635,1628,1619,1613,1604,1599,1593,1587,1581,1575,1567,1560,1556,1552
370,373,377,383,389,395,401,404,408,411,414,416,418,418,420,424,432,439,447,455,460,463,466,468,468,467,467,467,466,466,466,466,466,467,466,467,467,467,467,467,467,467,468,468,467,467,463,459,453,446,436,425,419,418,422,433,447,458,466,469,470,469,468,466,464,460,454,445,429,408,390,381,374,370,367,366,365,364,364,363,363,362,360,358,356,354,353,352,351,351,351,352,352,353,353,354,354,355,355,355,356,356,356,357,357,358,357,357,357,357,357,358,358,359,359,359,360,360,360,360,361,361,361,362,362,362,362,362,363,363,363,363,364,364,364,364,364,364,365,365,366,366,366,366,366,366,366,366,366,366,367,367,367,368,369,369,368,368,368,369,369,369,370,370,370,371,371,371,372,372,372,373,373,373,373,373,373,373,373,373,374,374,375,375,376,376,376,376,376,376,376,377,377,377,378,378,379,379,380,380,380,380,380,380,380,380,381,381,382,382,382,382,382,382,383,383,383,383,383,383,383,384,384,384,384,384,384,384,384,384,384,385,385,385,386,386,387,386,387,387,388,387,387,388,388,389,389,389,390,389,389,390,390,391,392,392,393,392,392,391,392,393,393,394,394,393,393,393,393,394,395,396,396,397,396,396,396,396,396,397,399,398,398,401,400,399,400,401,400,399,399,399,399,399,400,400,400,400,400,401,401,401,401,401,402,402,402,403,402,403,403,403,403,404,404,404,405,405,406,406,406,406,406,406,406,406,407,407,408,408,408,408,409,409,409,409,410,410,410,410,410,411,411,411,411,411,411,412,412,413,412,413,413,413,413,414,414,414,415,415,415,415,416,415,416,416,416,416,417,417,417,418,418,419,419,419,420,420,420,420,420,420,420,420,421,421,422,422,422,423,423,423,423,424,424,425,425,426,426,427,427,427,428,428,428,428,428,428,429,429,430,432,434,437,441,442,443,446,0,0,0,0,0,0,0,0,0,0,0,3485,3486,3475,3479,3479,3481,3481,3484,3482,3482,3484,3482,3485,3486,3488,3487,3485,3487,3485,3487,3486,3489,3488,3489,3488,3490,3489,3491,3490,3490,3488,3492,3491,3490,3489,3481,3476,3463,3457,3443,3427,3407,3397,0,0,0,0,0,0,0,0,0,0,0,0,0,0,0,0,0,3019,0,0,0,2952,2936,2930,2913,2892,2874,2858,2843,2839,2817,2808,2788,2781,2766,2752,2742,2732,2721,2703,2686,2674,2656,2654,2640,2631,2618,2598,2587,2574,2562,2543,2530,2514,2505,2492,2481,2468,2455,2441,2429,2422,2409,2401,2393,2382,2370,2351,2339,2325,2313,2307,2296,2289,2281,2273,2264,2255,2244,2235,2222,2212,2204,2197,2187,2178,2168,2156,2145,2136,2129,2123,2115,2109,2099,2090,2083,2076,2067,2059,2051,2042,2032,2025,2016,2008,1999,1991,1982,1971,1961,1951,1943,1936,1930,1924,1917,1909,1901,1893,1886,1878,1870,1861,1853,1844,1835,1828,1820,1813,1803,1796,1787,1780,1773,1766,1758,1752,1744,1737,1729,1722,1714,1706,1699,1692,1687,1679,1673,1666,1657,1652,1644,1640,1633,1626,1619,1613,1606,1600,1592,1586,1578,1573,1566,1562,1557,1553
369,372,376,383,389,395,402,405,409,412,416,418,418,418,421,425,432,439,447,454,459,462,465,467,467,467,467,467,466,467,466,466,466,467,467,467,467,467,467,468,467,467,468,468,468,467,464,460,454,446,435,423,416,414,418,429,445,458,467,472,473,474,474,473,472,471,467,462,454,440,420,399,384,376,371,368,366,365,364,364,364,363,362,360,358,355,353,352,351,351,351,351,352,353,353,354,354,355,355,355,355,355,355,356,357,357,357,357,357,357,357,358,358,359,359,359,360,360,360,361,361,361,362,362,362,362,362,362,362,363,363,363,363,364,364,364,364,365,365,365,366,366,366,366,366,366,366,366,366,366,366,367,367,368,368,368,368,368,368,368,369,369,369,370,370,371,371,371,372,372,372,373,373,373,373,373,373,373,373,373,373,374,374,375,375,376,376,376,376,376,376,377,377,377,377,378,378,379,379,380,380,380,380,380,380,381,381,381,382,382,382,383,383,383,383,382,382,383,383,383,384,384,384,384,384,384,384,384,384,384,384,385,385,385,385,386,386,386,387,387,388,387,388,388,389,389,389,389,389,389,390,390,391,391,392,393,393,392,392,392,392,393,394,394,394,394,393,393,393,394,395,395,396,397,396,395,396,396,395,397,398,398,398,401,399,398,399,401,400,400,400,400,399,400,400,400,400,401,401,401,401,401,401,402,402,401,402,402,402,403,404,404,403,404,404,404,405,405,405,406,406,406,406,406,406,406,406,407,408,408,408,408,408,409,409,409,410,410,410,410,410,410,410,411,411,411,411,412,412,413,413,413,413,413,413,414,414,414,415,415,415,415,416,416,416,416,416,416,417,417,417,417,418,418,419,419,420,420,420,420,420,420,420,421,421,422,422,422,422,423,423,423,424,424,424,425,425,426,426,427,427,427,428,428,428,428,428,429,429,429,430,431,433,435,440,442,443,446,449,0,0,0,0,0,0,0,0,0,3484,3484,3481,3480,3481,3480,3481,3482,3484,3484,3481,3482,3481,3482,3484,3485,3488,3487,3488,3486,3490,3490,3492,3491,3493,3490,3493,3491,3491,3490,3490,3490,3492,3492,3490,3490,3486,3481,3464,3454,3439,3423,3416,3394,0,0,0,0,0,0,0,0,0,0,0,0,0,0,0,0,0,3014,2999,0,0,0,2941,2936,0,2890,2878,2862,2842,2830,2817,2816,2797,2782,2768,2755,2743,2728,2713,2702,2683,2668,2664,2649,2631,2618,2613,2603,2584,2573,2558,2547,2531,2517,2500,2492,2484,2464,2453,2442,2431,2420,2410,2400,2391,2381,2367,2350,2341,2327,2316,2308,2298,2289,2283,2271,2263,2254,2243,2233,2224,2215,2205,2198,2187,2176,2165,2155,2146,2137,2126,2120,2113,2106,2097,2090,2082,2073,2065,2057,2049,2038,2030,2024,2014,2006,1998,1991,1982,1970,1960,1950,1942,1934,1928,1922,1914,1907,1899,1891,1884,1876,1868,1858,1851,1841,1835,1828,1820,1812,1804,1796,1787,1783,1773,1766,1759,1752,1743,1737,1729,1720,1712,1707,1699,1692,1688,1681,1674,1668,1658,1652,1645,1639,1632,1627,1621,1614,1607,1599,1593,1587,1580,1574,1568,1563,1557,1554
368,369,373,380,388,395,401,406,411,412,417,419,420,420,423,427,433,440,448,454,459,463,466,467,467,468,467,467,466,467,466,466,466,467,467,467,467,467,467,468,467,467,468,469,468,468,465,461,455,446,434,422,414,411,415,427,444,459,469,473,475,476,477,477,477,477,475,472,468,462,450,434,410,0,377,370,367,365,364,364,364,364,363,362,360,356,354,352,351,351,351,352,352,353,353,354,354,354,355,355,355,355,355,355,356,357,357,357,357,357,357,358,358,359,359,360,360,360,361,361,361,361,362,362,362,362,362,362,362,363,363,363,363,363,364,364,364,364,365,365,365,366,366,366,366,366,366,366,366,366,366,366,367,367,368,368,368,368,368,368,369,369,370,370,370,371,371,371,372,372,372,373,373,373,372,373,373,374,374,374,374,374,374,375,375,376,376,376,377,377,376,377,377,377,377,378,378,379,380,380,380,380,380,380,380,381,381,381,382,382,383,383,383,383,383,382,382,382,383,383,384,384,384,384,384,384,384,384,384,384,384,385,385,385,385,385,386,386,386,387,388,388,388,389,389,389,389,390,389,389,390,390,391,392,392,393,393,392,392,392,392,393,394,394,394,394,394,393,394,394,395,396,397,397,396,395,395,395,395,396,398,398,398,400,398,398,399,400,400,400,399,399,399,400,400,400,400,401,401,401,402,402,402,402,402,402,402,403,403,403,404,404,403,404,403,404,404,405,405,405,406,406,406,405,406,406,406,407,407,408,408,408,409,409,409,409,410,410,410,410,410,411,410,411,411,411,411,412,412,413,413,413,413,414,414,414,414,414,414,415,415,415,415,416,416,416,416,416,417,417,417,417,418,418,418,419,419,419,419,419,420,420,420,420,421,421,422,422,422,423,423,423,424,424,424,425,425,426,426,427,428,428,428,428,428,428,429,429,429,429,430,431,432,434,438,441,441,443,445,0,0,0,0,0,0,0,0,0,3480,3483,3477,3477,3479,3478,3480,3481,3482,3482,3481,3482,3481,3482,3483,3484,3485,3485,3487,3487,3490,3488,3492,3492,3492,3491,3493,3489,3490,3489,3490,3490,3490,3493,3490,3489,3488,3476,3470,3459,3440,3433,3417,3397,0,3366,0,0,0,0,0,0,0,0,0,0,0,0,0,0,0,3011,0,2989,0,0,0,0,0,2890,0,2862,2848,2840,2831,2801,2796,2780,2769,2750,2735,2726,2711,2706,2683,2674,2666,2655,2642,2629,2610,2594,2585,2573,2561,2546,2535,2511,2508,2485,2483,2466,2458,2446,2435,2424,2409,2397,2390,2380,2371,2351,2335,2326,2316,2308,2298,2292,2283,2274,2262,2253,2242,2231,2222,2215,2205,2197,2189,2177,2165,2157,2147,2137,2127,2120,2111,2104,2096,2088,2081,2071,2065,2057,2048,2039,2031,2023,2013,2005,1997,1988,1978,1969,1960,1950,1941,1934,1928,1921,1913,1906,1897,1888,1884,1875,1868,1859,1852,1841,1836,1826,1819,1811,1804,1795,1787,1783,1773,1765,1760,1752,1745,1737,1729,1721,1713,1708,1700,1693,1688,1680,1673,1667,1659,1651,1644,1639,1633,1626,1621,1614,1608,1599,1592,1585,1579,1574,1568,1563,1559,1554
368,371,374,381,388,394,402,407,410,413,417,418,418,420,423,428,434,442,449,455,459,463,465,466,466,467,467,467,467,467,467,466,466,467,467,467,467,468,468,468,468,468,468,468,468,468,466,462,456,448,435,421,413,410,414,427,445,462,470,475,477,477,478,479,480,480,480,478,476,472,467,457,442,0,0,0,367,364,363,363,364,364,364,363,361,358,356,353,352,351,351,352,353,353,354,354,354,354,355,354,355,355,355,355,356,356,357,357,357,356,357,357,358,359,359,360,360,360,361,361,361,361,362,362,362,362,362,362,362,363,363,363,363,363,363,364,364,364,364,365,365,366,366,366,365,365,365,366,366,367,367,367,367,367,367,368,367,368,368,368,369,369,370,370,370,371,371,372,372,372,372,372,373,373,372,373,373,374,374,374,374,374,375,375,376,376,376,376,377,377,377,377,377,377,377,378,379,379,380,380,380,380,380,380,380,381,381,381,381,382,382,382,383,383,382,382,382,382,383,383,384,384,384,384,384,384,384,384,384,384,384,385,385,385,385,386,386,386,387,387,387,388,388,389,389,389,389,389,389,389,390,391,391,392,393,393,393,392,392,392,392,392,394,394,394,394,394,394,394,395,396,396,397,397,396,395,395,395,395,396,398,398,398,399,399,398,399,400,400,400,399,399,399,399,399,399,400,400,400,401,402,402,401,402,402,402,402,403,403,403,403,403,403,404,403,403,404,405,405,406,406,406,406,406,406,406,407,407,408,408,408,408,408,409,409,409,410,410,410,410,411,411,411,411,411,412,412,412,412,413,413,413,413,414,414,414,414,414,414,414,414,415,415,416,416,417,416,416,417,417,417,417,417,417,418,418,419,419,419,419,420,420,420,420,421,421,421,422,422,423,423,424,424,424,424,424,425,425,426,427,428,428,428,428,428,428,429,429,429,429,430,430,431,434,437,441,441,443,0,0,0,0,0,0,0,0,0,0,3477,3481,3480,3481,3482,3483,3482,3483,3483,3483,3482,3482,3483,3482,3483,3484,3486,3485,3488,3491,3490,3489,3492,3491,3493,3493,3494,3492,3490,3490,3490,3487,3489,3491,3491,3491,3487,3481,3467,3455,3443,3423,3412,3395,3387,0,0,0,0,0,0,0,0,0,0,0,0,0,0,0,0,0,0,2990,2974,2960,2943,0,0,0,2880,2864,2848,2831,2826,2806,2797,2783,2770,2762,2732,2727,2707,2700,2686,2675,2669,2653,2643,2627,2610,2600,2587,2573,2559,2548,2530,2516,2505,2488,2480,2466,2457,2447,2436,2422,2409,2399,2390,2377,2366,2356,2343,2330,2320,2308,2302,2293,2286,2274,2266,2253,2242,2231,2222,2214,2206,2195,2183,2171,2164,2155,2147,2138,2129,2120,2111,2103,2096,2087,2082,2072,2065,2053,2046,2037,2028,2019,2013,2003,1994,1985,1976,1967,1959,1950,1942,1936,1928,1921,1913,1904,1896,1888,1881,1874,1867,1856,1850,1840,1835,1826,1822,1811,1802,1794,1788,1781,1775,1767,1760,1752,1744,1737,1727,1720,1713,1708,1701,1695,1689,1681,1674,1669,1662,1654,1645,1639,1633,1626,1621,1614,1607,1599,1592,1586,1581,1574,1568,1563,1558,1553
367,369,374,379,387,394,403,407,411,413,417,418,419,421,425,430,436,444,451,457,460,463,465,465,466,467,467,467,467,467,466,466,466,467,467,467,467,467,468,468,468,468,469,469,469,469,467,464,458,449,436,422,413,410,415,429,450,465,472,476,478,479,480,481,482,483,483,482,481,480,476,471,461,0,0,0,0,0,0,363,364,364,364,364,362,360,358,355,353,352,352,352,353,354,354,354,354,354,354,354,354,354,354,354,355,356,356,357,357,356,357,357,358,359,359,360,360,360,361,361,361,361,361,361,362,362,362,362,362,363,363,363,363,363,363,364,364,364,364,365,365,365,366,366,366,366,365,366,366,366,367,367,367,367,367,367,367,367,367,368,369,369,370,370,371,371,371,372,372,372,372,372,372,372,372,373,373,373,374,374,374,374,374,375,375,376,376,376,377,377,376,376,376,377,377,378,379,379,380,380,380,380,380,380,380,381,381,381,381,382,382,382,383,382,382,382,382,382,382,383,384,384,384,384,384,384,384,385,385,385,385,385,385,385,385,385,386,386,386,387,387,388,388,389,389,389,389,389,389,390,390,391,391,392,392,393,392,392,392,392,392,392,393,394,394,394,394,394,394,395,396,396,397,397,396,395,395,395,395,396,398,398,398,398,399,399,400,400,400,399,399,399,399,399,399,399,399,400,400,401,402,402,402,402,403,402,402,403,403,403,404,404,403,403,403,403,404,405,405,405,406,406,406,406,406,407,407,408,408,408,408,408,409,409,409,409,410,410,410,411,411,411,411,411,412,412,412,412,412,413,413,413,413,414,414,414,414,414,414,414,414,415,415,416,416,416,416,416,416,417,417,417,417,417,418,418,419,419,419,419,420,420,420,420,421,421,421,422,422,423,423,424,424,424,424,424,425,425,426,427,427,428,428,428,428,428,429,429,429,429,429,430,431,433,435,440,439,440,0,0,0,0,0,0,0,0,0,0,3477,3478,3478,3479,3480,3483,3481,3481,3482,3481,3481,3483,3484,3485,3484,3485,3485,3486,3490,3489,3492,3491,3491,3492,3494,3493,3493,3492,3490,3490,3489,3489,3489,3492,3490,3489,3487,3478,3471,3462,3453,3428,3410,0,0,0,0,0,0,0,0,0,0,0,0,0,0,0,0,0,0,0,0,2990,0,2971,0,0,0,0,0,2862,2861,2838,2829,2811,2803,2786,2769,2751,2734,2723,2707,2701,2690,2683,2666,2654,2644,2623,2612,2598,2585,2574,2560,2550,2530,2519,2506,2494,2481,2467,2462,2449,2435,2423,2410,2398,2387,2373,2364,2353,2338,2326,2317,2306,2301,2293,2285,2272,2263,2251,2240,2229,2222,2212,2204,2194,2184,2172,2163,2155,2147,2139,2129,2119,2111,2103,2097,2089,2083,2070,2062,2051,2045,2034,2027,2020,2011,2002,1994,1985,1976,1969,1961,1951,1943,1936,1928,1921,1914,1903,1894,1887,1881,1873,1868,1858,1850,1841,1835,1826,1820,1812,1803,1794,1788,1780,1775,1767,1760,1753,1743,1736,1727,1718,1711,1707,1700,1694,1689,1682,1675,1669,1663,1653,1647,1640,1633,1626,1623,1617,1609,1600,1593,1586,1580,1573,1569,1562,1557,1552
366,367,372,379,387,394,400,405,411,413,416,418,419,422,427,433,440,447,453,457,461,463,464,465,466,467,467,467,467,467,467,467,467,467,467,467,467,467,467,468,468,468,468,469,469,469,468,465,460,451,438,424,414,412,417,433,451,468,474,477,479,480,481,482,483,484,485,484,484,484,483,479,473,461,0,0,0,0,0,0,0,364,364,364,363,361,359,357,355,354,353,353,354,354,354,354,354,353,353,353,353,353,353,354,354,355,356,357,357,357,357,358,358,359,359,360,360,360,361,361,361,361,361,361,362,362,362,362,362,363,363,363,363,363,363,363,364,364,364,364,364,365,365,365,366,366,366,366,367,367,367,367,367,367,367,367,367,367,368,368,369,369,370,370,371,371,371,371,372,372,372,372,372,372,372,373,373,373,374,374,374,375,375,375,375,376,376,376,377,376,376,376,377,377,378,379,379,380,380,380,380,380,380,380,380,381,381,381,381,382,382,382,382,382,381,381,382,382,382,383,384,384,384,384,384,384,384,385,385,385,385,385,384,385,385,386,386,386,387,387,387,388,388,388,389,389,389,389,389,390,390,391,391,392,392,393,393,392,392,392,392,392,393,393,394,394,394,394,394,395,395,396,396,397,397,396,395,396,395,395,397,398,397,398,398,399,400,400,400,399,399,399,398,399,399,399,399,399,400,400,401,401,401,402,402,402,403,403,404,404,404,404,404,404,404,404,404,405,405,406,406,406,406,407,407,407,408,408,408,408,408,408,409,409,410,409,409,410,410,410,410,411,411,411,412,412,412,412,412,412,413,413,413,414,414,414,414,414,414,414,415,415,415,416,416,416,416,416,416,417,417,417,417,417,418,418,419,419,419,419,420,420,421,421,421,421,421,422,422,423,423,423,424,424,424,424,425,425,426,427,427,428,428,428,428,428,428,429,428,429,429,430,431,433,435,440,439,0,0,0,0,0,0,0,0,0,0,0,3479,3477,3481,3483,3484,3485,3483,3481,3482,3481,3484,3484,3488,3487,3488,3488,3487,3486,3489,3490,3491,3490,3491,3491,3492,3491,3492,3491,3489,3490,3490,3488,3490,3490,3490,3487,3485,3477,3470,3453,3441,3433,3414,3406,0,0,0,0,0,0,0,0,0,0,0,0,0,0,0,0,0,0,0,0,2984,2977,0,0,0,0,0,0,2848,2836,2826,2810,2801,2786,2777,2756,2734,2724,2709,2703,2687,2678,2664,2647,2636,2623,2612,2600,2586,2574,2557,2541,2533,2522,2506,2496,2483,2469,2461,2444,2434,2419,2411,2398,2387,2371,2359,2347,2340,2330,2320,2311,2303,2293,2286,2274,2263,2251,2240,2228,2221,2213,2203,2191,2181,2171,2163,2153,2147,2139,2130,2120,2112,2102,2096,2088,2081,2071,2061,2051,2041,2032,2026,2017,2009,2000,1991,1984,1976,1967,1960,1951,1943,1936,1929,1922,1912,1904,1895,1888,1881,1874,1868,1861,1851,1841,1837,1829,1822,1813,1805,1791,1786,1778,1771,1764,1758,1751,1742,1736,1728,1719,1711,1706,1699,1692,1687,1681,1674,1669,1663,1655,1647,1640,1633,1627,1622,1616,1609,1600,1594,1586,1581,1575,1571,1563,1559,1553
367,368,371,377,386,391,400,406,411,413,417,419,421,425,430,436,444,450,455,459,462,463,464,465,465,466,466,467,467,467,467,467,467,467,467,467,467,468,468,468,467,467,468,468,469,470,469,466,461,453,441,425,417,415,421,437,457,469,475,477,479,480,481,483,484,485,486,487,487,488,487,485,480,473,0,0,0,0,0,0,0,0,0,365,364,363,361,359,357,355,355,354,354,355,355,354,353,353,353,353,353,353,353,353,354,355,356,357,357,356,357,357,358,358,359,360,360,360,361,361,361,361,361,361,362,362,362,362,363,363,363,363,363,363,363,363,363,364,364,364,364,365,365,365,366,366,366,367,367,367,368,368,368,367,367,368,368,368,368,368,369,369,369,370,370,370,371,371,372,372,372,372,372,372,372,373,373,373,374,374,374,374,374,375,375,376,376,377,377,376,376,376,377,377,378,379,379,380,380,380,380,380,380,380,380,380,380,380,380,381,381,381,381,382,381,381,382,382,383,383,384,384,384,384,384,384,384,385,385,385,385,385,384,385,386,386,386,387,387,387,387,388,388,388,388,389,389,389,389,390,390,390,391,391,392,392,392,392,392,392,392,392,393,393,394,394,395,395,395,395,395,396,396,397,396,396,395,396,395,396,397,397,397,397,398,398,399,400,400,399,399,399,398,398,399,398,399,399,400,400,400,401,401,402,402,403,403,403,404,404,404,404,404,404,404,404,404,405,405,405,405,406,406,406,406,407,408,408,408,408,408,408,409,409,410,410,410,410,410,410,410,411,411,411,412,412,412,412,412,413,413,413,413,413,414,414,414,414,414,414,414,415,415,415,415,416,416,416,416,417,417,417,417,417,418,418,419,419,419,419,420,420,420,421,421,421,422,422,422,423,423,423,424,424,424,424,425,426,426,427,427,427,427,428,428,428,428,429,428,429,429,430,431,433,435,439,439,437,0,0,0,0,0,0,0,0,0,0,3477,3479,3480,3483,3484,3482,3483,3481,3482,3482,3484,3486,3490,3489,3488,3489,3488,3487,3490,3491,3490,3489,3490,3491,3488,3488,3491,3490,3488,3490,3491,3490,3490,3489,3487,3483,3480,3478,3469,3462,3447,3433,3422,3400,0,0,0,0,0,0,0,0,0,0,0,0,0,0,0,0,0,0,0,2988,2974,2962,0,2941,0,0,0,0,2850,2834,2826,2819,2802,2793,2772,2753,2743,2725,2710,2701,2689,2677,2662,2643,2628,2619,2606,2596,2583,2573,2561,2549,2531,2525,2505,2495,2487,2473,2456,2444,2434,2420,2411,2399,2382,2372,2357,2346,2336,2324,2317,2307,2299,2290,2282,2272,2259,2249,2238,2229,2221,2212,2203,2193,2184,2172,2162,2155,2146,2136,2127,2119,2110,2103,2095,2089,2080,2072,2061,2050,2044,2036,2028,2019,2010,2000,1990,1983,1976,1968,1962,1952,1944,1937,1929,1922,1913,1904,1895,1889,1881,1877,1870,1863,1852,1845,1838,1832,1822,1815,1804,1794,1786,1779,1771,1766,1758,1750,1744,1736,1728,1720,1713,1706,1699,1694,1688,1681,1674,1666,1661,1653,1647,1640,1634,1627,1621,1616,1611,1602,1594,1586,1580,1573,1569,1563,1558,1551
366,367,372,378,387,393,400,406,410,413,417,418,421,426,433,439,447,453,458,461,462,463,464,464,465,465,466,467,467,467,467,467,467,466,467,467,467,467,468,467,467,467,468,468,469,470,469,467,463,455,442,428,420,418,424,440,459,470,475,478,479,480,481,483,484,485,486,488,489,490,489,489,485,477,0,0,0,0,0,0,0,0,0,0,0,364,363,361,359,357,356,355,355,355,355,354,354,353,352,352,352,353,353,353,353,354,355,356,357,357,357,358,358,358,359,359,359,360,360,361,361,361,361,361,361,361,362,362,362,363,363,363,363,363,363,363,363,363,363,364,364,364,365,365,366,366,366,367,367,367,368,368,368,368,368,368,368,369,369,369,369,369,369,369,370,370,371,371,372,372,372,372,372,372,372,373,373,373,373,374,374,374,375,375,375,376,376,376,376,376,376,376,377,377,378,379,379,379,379,380,380,380,380,380,380,380,380,380,380,381,381,381,381,381,381,381,382,382,382,383,383,383,383,384,383,384,384,385,385,385,385,385,385,385,386,386,386,387,387,387,388,388,388,388,388,388,389,389,389,390,390,390,391,391,391,392,392,392,392,392,392,392,393,393,394,394,395,395,395,395,395,395,396,396,396,396,396,396,396,396,396,397,397,398,399,399,399,399,399,398,398,398,398,398,399,399,399,399,400,400,400,400,401,402,402,403,403,403,404,404,404,404,404,404,404,404,404,405,405,405,406,406,406,407,406,407,408,408,408,408,408,408,409,410,410,410,410,410,410,410,410,411,411,412,412,412,412,412,412,413,413,413,414,414,414,414,414,414,414,414,414,415,415,415,415,415,416,416,416,417,417,417,417,417,417,418,419,419,419,420,420,420,420,421,421,421,422,422,422,423,423,424,424,424,424,425,425,425,426,426,427,427,427,427,428,428,428,428,428,429,429,430,431,432,435,439,442,440,447,0,0,0,0,0,0,0,0,0,3477,3480,3480,3481,3483,3483,3482,3479,3483,3482,3485,3489,3491,3489,3492,3489,3490,3490,3490,3491,3492,3492,3491,3492,3492,3491,3492,3493,3491,3491,3491,3490,3490,3490,3487,3486,3484,3477,3468,3462,3445,3436,3420,0,0,0,0,0,0,0,0,0,0,0,0,0,0,0,0,0,0,0,0,2991,2975,2969,2954,2928,2908,0,0,2857,2846,2839,2821,2814,2796,2786,2772,2764,2749,2732,2719,2708,2694,2669,2653,2639,2628,2617,2606,2598,2584,2574,2559,2546,2529,2516,2507,2496,2486,2470,2459,2441,2432,2421,2407,2400,2386,2370,2358,2348,2338,2331,2320,2309,2299,2290,2282,2270,2261,2250,2238,2230,2222,2216,2203,2195,2183,2173,2161,2153,2144,2134,2127,2117,2110,2102,2096,2089,2079,2071,2060,2050,2043,2035,2026,2017,2007,1999,1991,1984,1976,1969,1961,1953,1946,1938,1929,1923,1915,1906,1896,1892,1881,1877,1869,1862,1852,1846,1838,1830,1825,1815,1806,1796,1788,1779,1772,1763,1758,1749,1745,1737,1730,1722,1713,1706,1699,1692,1686,1680,1672,1667,1659,1652,1645,1639,1632,1625,1620,1615,1609,1603,1594,1587,1580,1572,1568,1561,1557,1552
367,368,373,377,386,392,399,405,410,413,417,420,423,428,435,441,449,455,458,461,463,464,464,464,465,465,466,466,467,467,467,466,466,466,466,467,467,467,467,467,467,467,468,468,469,470,469,467,464,456,445,431,422,421,429,444,461,471,476,478,480,481,482,483,485,486,487,489,491,492,492,492,490,482,0,0,0,0,0,0,0,0,0,0,0,0,0,363,361,359,358,357,357,356,356,355,354,353,352,352,352,352,352,352,353,354,355,356,357,357,357,358,358,358,359,359,359,360,360,360,360,361,361,361,361,361,362,362,362,362,363,362,363,363,363,363,363,363,363,364,364,364,365,365,366,366,366,366,366,367,367,368,368,368,368,368,368,369,369,369,369,369,369,369,370,370,371,371,372,372,372,372,372,373,373,373,373,373,373,373,373,374,374,375,375,375,376,376,376,375,376,376,377,377,378,378,378,379,379,379,379,380,380,380,380,380,380,380,380,381,381,381,381,381,381,381,382,382,382,383,383,383,383,383,383,383,384,384,385,385,385,385,385,386,386,386,386,387,387,388,388,388,388,388,388,389,389,389,390,390,390,390,390,391,391,392,392,392,392,392,393,393,393,393,394,394,395,395,395,395,395,395,396,396,396,397,396,396,396,396,396,397,397,398,399,399,398,398,398,398,398,398,398,398,399,399,400,400,401,400,400,401,401,402,402,403,403,403,403,403,404,404,404,404,404,404,404,405,405,405,405,406,406,407,406,407,407,408,408,408,408,409,409,410,410,410,410,410,410,410,410,410,411,411,412,412,412,413,412,413,413,413,413,414,414,414,414,414,414,414,414,415,415,415,415,415,416,416,416,417,417,417,417,418,418,418,418,418,419,419,420,420,420,421,421,422,422,422,423,423,423,424,424,424,425,425,425,426,426,426,427,427,427,427,427,428,428,428,428,428,428,429,430,432,435,439,441,441,445,0,0,0,0,0,0,0,0,3487,3477,3481,3478,3480,3481,3483,3483,3480,3484,3483,3485,3487,3490,3489,3490,3491,3490,3491,3491,3491,3493,3493,3490,3491,3493,3491,3492,3493,3492,3491,3492,3492,3493,3490,3486,3482,3479,3476,3471,3463,3451,3430,3418,0,0,0,0,0,0,0,0,0,0,0,0,0,0,0,0,0,0,0,0,2982,2976,2960,2944,2931,2920,0,2882,2858,2846,2838,2821,2814,2790,2786,2775,2761,2752,2728,2725,2707,2697,2678,2649,2638,2626,2616,2605,2592,2584,2575,2559,2545,2533,2515,2509,2493,2484,2471,2456,2445,2426,2418,2409,2397,0,2371,2360,2351,2338,2331,2321,2308,2298,2288,2278,2269,2261,2250,2239,2228,2222,2215,2205,2196,2184,2176,2164,2155,2145,2136,2127,2117,2109,2101,2094,2087,2080,2070,2059,2050,2042,2034,2026,2017,2009,2000,1991,1984,1976,1969,1961,1954,1946,1936,1926,1921,1912,1905,1898,1893,1884,1879,1869,1863,1851,1845,1839,1830,1822,1813,1806,1797,1788,1782,1773,1764,1757,1751,1746,1737,1732,1722,1714,1707,1699,1692,1686,1680,1673,1666,1658,1651,1645,1639,1631,1625,1619,1614,1608,1602,1594,1586,1579,1572,1567,1560,1556,1551
369,370,375,379,388,394,399,405,409,412,416,419,425,431,438,444,451,456,459,461,463,464,464,464,465,465,466,466,466,466,466,466,466,466,466,466,467,467,467,467,467,467,467,468,469,470,469,467,464,457,446,433,424,424,433,448,463,473,478,480,481,482,483,484,485,486,488,490,492,494,494,494,491,0,0,0,0,0,0,0,0,0,0,0,0,0,0,0,0,361,360,359,359,358,358,356,355,353,352,352,351,351,352,352,353,354,355,356,357,357,357,358,358,358,359,359,359,360,360,360,360,360,361,361,361,361,362,362,362,363,363,362,362,363,363,363,363,364,363,364,364,364,364,365,365,366,366,366,366,367,367,367,368,368,368,368,368,369,369,369,369,369,369,369,370,370,371,371,371,372,372,372,373,373,373,373,373,372,373,373,373,373,374,374,375,375,376,375,375,375,376,376,377,377,378,378,378,378,379,379,379,380,380,380,380,380,379,380,380,381,380,381,380,381,381,381,382,382,383,383,383,383,383,382,382,383,383,384,384,384,384,385,385,386,386,386,386,387,387,388,388,388,388,388,388,389,389,390,390,390,390,389,390,391,391,391,392,392,392,392,393,393,393,394,394,394,395,395,395,395,395,395,396,396,396,397,397,397,397,397,397,397,397,398,398,398,398,398,398,398,398,398,399,399,399,400,400,401,401,401,401,401,401,402,401,402,402,402,402,402,403,403,404,403,404,404,405,405,405,405,405,406,406,406,406,407,407,407,407,408,408,408,409,409,409,410,410,410,410,410,410,410,411,411,412,412,412,412,412,413,413,413,413,413,413,414,414,414,414,414,414,415,414,414,415,415,416,416,416,417,417,417,417,418,418,418,418,419,419,419,420,420,421,421,421,422,422,422,422,423,423,424,424,424,424,425,425,426,426,427,427,427,427,427,427,427,428,428,428,428,429,430,430,432,434,439,441,441,446,0,0,0,0,0,0,0,0,0,3483,3479,3477,3481,3483,3482,3484,3484,3483,3485,3484,3487,3489,3489,3487,3489,3488,3490,3491,3490,3491,3490,3490,3492,3493,3494,3496,3494,3494,3493,3493,3491,3491,3490,3486,3484,3480,3476,3467,3456,3447,3432,0,0,0,0,0,0,0,0,0,0,0,0,0,0,0,0,0,0,0,0,0,0,2968,2955,2937,2920,2910,2889,2875,2868,2852,2844,2816,2809,2795,2790,2774,2764,2754,2737,2725,2710,2702,2677,2650,2640,2623,2615,2604,2595,2581,2569,2556,2538,2528,2512,2506,2494,2485,2470,2459,2448,2431,2424,2404,2395,2383,2372,2362,2352,2342,2334,2322,2311,2302,2289,2283,2271,2261,2249,2241,2230,2223,2216,2206,2196,2183,2177,2164,2155,2145,2137,2125,2117,2110,2100,2094,2087,2078,2069,2060,2052,2044,2036,2027,2016,2009,2001,1991,1985,1975,1969,1960,1953,1945,1937,1928,1920,1912,1906,1899,1894,1884,1878,1869,1863,1852,1845,1838,1831,1819,1812,1805,1797,1790,1780,1772,1764,1757,1750,1746,1739,1733,1723,1716,1707,1698,1692,1684,1678,1671,1665,1659,1651,1643,1638,1631,1624,1618,1613,1607,1601,1593,1586,1579,1571,1566,1560,1556,1551
