0,0,0,0,0,0,0,0,0,0,0,0,0,0,0,0,0,0,0,0,0,0,0,0,0,0,0,0,0,0,0,0,0,0,0,0,0,0,0,0,0,0,0,0,0,0,0,0,0,0,0,0,0,0,0,0,0,0,0,0,0,0,0,0,0,0,0,0,0,0,0,0,0,0,0,0,0,0,0,0,0,0,0,0,0,0,0,0,0,0,0,0,0,0,0,0,0,0,0,0,0,0,0,0,0,0,0,0,0,0,0,0,0,0,0,0,0,0,0,0,0,0,0,0,0,0,0,0,0,0,0,0,0,0,0,0,0,54,126,199,480,483,477,478,480,480,480,478,474,465,455,450,450,447,448,450,454,457,461,465,469,471,474,475,476,476,477,483,487,488,490,491,492,494,497,497,498,499,502,511,510,478,433,325,259,256,262,266,273,281,284,15,3,0,3,280,814.0001,811.0001,803.0001,802.0001,805.0001,811.0001,815.0001,815.0001,813.0001,814.0001,816.0001,818.0001,820.0001,821.0001,822.0001,823.0001,826.0001,828.0001,829.0001,827.0001,825.0001,826.0001,827.0001,828.0001,830.0001,832.0001,833.0001,832.0001,831.0001,832.0001,833.0001,835.0001,837.0001,840.0001,842.0001,841.0001,839.0001,840.0001,841.0001,843.0001,845.0001,846.0001,847.0001,847.0001,848.0001,848.0001,848.0001,848.0001,848.0001,849.0001,850.0001,850.0001,850.0001,853.0001,858.0001,862.0001,865.0001,865.0001,863.0001,862.0001,860.0001,859.0001,858.0001,858.0001,857.0001,857.0001,858.0001,858.0001,859.0001,859.0001,859.0001,860.0001,861.0001,862.0001,864.0001,864.0001,866.0001,867.0001,868.0001,869.0001,870.0001,870.0001,870.0001,869.0001,868.0001,868.0001,868.0001,868.0001,868.0001,868.0001,868.0001,869.0001,870.0001,868.0001,866.0001,867.0001,868.0001,870.0001,872.0001,872.0001,873.0001,874.0001,875.0001,877.0001,879.0001,880.0001,880.0001,880.0001,879.0001,879.0001,879.0001,878.0001,876.0001,876.0001,876.0001,878.0001,881.0001,881.0001,881.0001,883.0001,885.0001,887.0001,888.0001,885.0001,880.0001,880.0001,880.0001,880.0001,880.0001,880.0001,880.0001,880.0001,881.0001,881.0001,883.0001,886.0001,890.0001,892.0001,892.0001,891.0001,890.0001,889.0001,888.0001,887.0001,886.0001,886.0001,886.0001,887.0001,888.0001,889.0001,890.0001,889.0001,888.0001,885.0001,884.0001,886.0001,887.0001,886.0001,884.0001,883.0001,882.0001,881.0001,880.0001,882.0001,885.0001,885.0001,885.0001,885.0001,885.0001,885.0001,885.0001,890.0001,895.0001,894.0001,893.0001,892.0001,892.0001,891.0001,891.0001,893.0001,895.0001,895.0001,895.0001,897.0001,899.0001,899.0001,899.0001,897.0001,893.0001,891.0001,889.0001,887.0001,885.0001,884.0001,883.0001,885.0001,887.0001,891.0001,894.0001,895.0001,894.0001,892.0001,890.0001,886.0001,883.0001,882.0001,882.0001,880.0001,879.0001,878.0001,878.0001,882.0001,886.0001,887.0001,887.0001,887.0001,888.0001,890.0001,891.0001,888.0001,883.0001,880.0001,880.0001,882.0001,887.0001,887.0001,886.0001,884.0001,882.0001,879.0001,876.0001,876.0001,876.0001,879.0001,882.0001,883.0001,882.0001,882.0001,882.0001,882.0001,884.0001,884.0001,884.0001,886.0001,889.0001,890.0001,890.0001,889.0001,887.0001,886.0001,882.0001,871.0001,861.0001,861.0001,866.0001,870.0001,873.0001,875.0001,876.0001,877.0001,877.0001,878.0001,878.0001,875.0001,870.0001,869.0001,869.0001,871.0001,872.0001,871.0001,869.0001,867.0001,865.0001,863.0001,863.0001,866.0001,870.0001,871.0001,871.0001,869.0001,868.0001,868.0001,866.0001,863.0001,860.0001,860.0001,861.0001,862.0001,862.0001,864.0001,864.0001,862.0001,859.0001,858.0001,857.0001,857.0001,856.0001,855.0001,853.0001,847.0001,841.0001,838.0001,837.0001,846.0001,853.0001,842.0001,831.0001,839.0001,847.0001,833.0001,817.0001,830.0001,853.0001,851.0001,842.0001,571,42,10,0,0,2,0,0,0,0,0,0,0,0,0,0,0,0,0,0,0,0,0,0,0,0,0,0,0,0,0,0,0,0,0,0,0,0,0,0,0,0,0,0,0,0,0,0,0,0,0,0,0,0,0,0,0,0,0,0,0,0,0,0,0,0,0,0,0,0,0,0,0,0,0,0,0,0,0,0,0,0,0,0,0,0,0,0,0,0,0,0,0,0,0,0,0,0,0,0,0,0,0,0,0,0,0,0,0,0,0,0,0,0,0,0,0,0,0,0,0,0,0,0,0,0,0,0,0
0,0,0,0,0,0,0,0,0,0,0,0,0,0,0,0,0,0,0,0,0,0,0,0,0,0,0,0,0,0,0,0,0,0,0,0,0,0,0,0,0,0,0,0,0,0,0,0,0,0,0,0,0,0,0,0,0,0,0,0,0,0,0,0,0,0,0,0,0,0,0,0,0,0,0,0,0,0,0,0,0,0,0,0,0,0,0,0,0,0,0,0,0,0,0,0,0,0,0,0,0,0,0,0,0,0,0,0,0,0,0,0,0,0,0,0,0,0,0,0,0,0,0,0,0,0,0,0,0,0,0,0,0,0,0,0,3,89,195,222,480,479,476,477,479,480,479,477,473,463,454,449,450,447,448,450,454,457,461,465,469,471,474,476,477,477,479,484,488,489,491,492,493,496,498,498,498,499,502,510,511,492,450,366,256,256,259,263,271,279,284,17,5,1,0,273,811.0001,812.0001,809.0001,810.0001,812.0001,817.0001,822.0001,822.0001,821.0001,821.0001,823.0001,825.0001,829.0001,830.0001,831.0001,832.0001,832.0001,833.0001,834.0001,835.0001,835.0001,835.0001,836.0001,837.0001,839.0001,841.0001,843.0001,842.0001,841.0001,841.0001,843.0001,846.0001,848.0001,851.0001,852.0001,850.0001,848.0001,848.0001,850.0001,852.0001,854.0001,855.0001,857.0001,857.0001,857.0001,857.0001,857.0001,857.0001,857.0001,858.0001,859.0001,858.0001,859.0001,863.0001,869.0001,872.0001,874.0001,873.0001,870.0001,871.0001,871.0001,871.0001,870.0001,868.0001,867.0001,866.0001,866.0001,867.0001,868.0001,868.0001,868.0001,869.0001,870.0001,871.0001,872.0001,873.0001,875.0001,877.0001,877.0001,878.0001,879.0001,880.0001,880.0001,879.0001,879.0001,879.0001,879.0001,879.0001,879.0001,879.0001,879.0001,879.0001,879.0001,877.0001,875.0001,875.0001,877.0001,879.0001,881.0001,881.0001,882.0001,883.0001,884.0001,886.0001,888.0001,888.0001,888.0001,888.0001,887.0001,888.0001,887.0001,885.0001,883.0001,883.0001,883.0001,885.0001,888.0001,888.0001,889.0001,890.0001,894.0001,895.0001,896.0001,892.0001,888.0001,888.0001,888.0001,888.0001,888.0001,888.0001,888.0001,888.0001,888.0001,889.0001,890.0001,893.0001,897.0001,898.0001,899.0001,898.0001,897.0001,896.0001,895.0001,894.0001,893.0001,892.0001,893.0001,894.0001,896.0001,897.0001,898.0001,897.0001,896.0001,893.0001,892.0001,894.0001,894.0001,894.0001,892.0001,891.0001,890.0001,889.0001,888.0001,891.0001,894.0001,895.0001,894.0001,894.0001,894.0001,894.0001,894.0001,898.0001,902.0001,901.0001,900.0001,900.0001,900.0001,900.0001,900.0001,900.0001,900.0001,900.0001,901.0001,903.0001,905.0001,905.0001,904.0001,904.0001,902.0001,900.0001,898.0001,896.0001,894.0001,892.0001,892.0001,893.0001,896.0001,900.0001,904.0001,905.0001,904.0001,901.0001,897.0001,894.0001,890.0001,890.0001,891.0001,891.0001,890.0001,890.0001,891.0001,893.0001,896.0001,896.0001,896.0001,897.0001,899.0001,900.0001,900.0001,898.0001,894.0001,891.0001,889.0001,892.0001,895.0001,896.0001,896.0001,894.0001,892.0001,888.0001,885.0001,885.0001,885.0001,889.0001,892.0001,892.0001,889.0001,889.0001,890.0001,891.0001,893.0001,893.0001,894.0001,897.0001,901.0001,901.0001,900.0001,897.0001,894.0001,892.0001,888.0001,878.0001,870.0001,871.0001,875.0001,879.0001,882.0001,883.0001,884.0001,887.0001,888.0001,889.0001,890.0001,886.0001,881.0001,878.0001,878.0001,881.0001,883.0001,882.0001,880.0001,877.0001,875.0001,873.0001,873.0001,875.0001,879.0001,879.0001,878.0001,878.0001,877.0001,876.0001,875.0001,872.0001,869.0001,869.0001,871.0001,872.0001,873.0001,875.0001,876.0001,874.0001,871.0001,870.0001,868.0001,867.0001,865.0001,863.0001,860.0001,855.0001,850.0001,847.0001,848.0001,857.0001,861.0001,841.0001,821.0001,829.0001,864.0001,851.0001,837.0001,851.0001,866.0001,865.0001,857.0001,590,62,22,0,0,0,0,0,0,0,0,0,0,0,0,0,0,0,0,0,0,0,0,0,0,0,0,0,0,0,0,0,0,0,0,0,0,0,0,0,0,0,0,0,0,0,0,0,0,0,0,0,0,0,0,0,0,0,0,0,0,0,0,0,0,0,0,0,0,0,0,0,0,0,0,0,0,0,0,0,0,0,0,0,0,0,0,0,0,0,0,0,0,0,0,0,0,0,0,0,0,0,0,0,0,0,0,0,0,0,0,0,0,0,0,0,0,0,0,0,0,0,0,0,0,0,0,0,0
0,0,0,0,0,0,0,0,0,0,0,0,0,0,0,0,0,0,0,0,0,0,0,0,0,0,0,0,0,0,0,0,0,0,0,0,0,0,0,0,0,0,0,0,0,0,0,0,0,0,0,0,0,0,0,0,0,0,0,0,0,0,0,0,0,0,0,0,0,0,0,0,0,0,0,0,0,0,0,0,0,0,0,0,0,0,0,0,0,0,0,0,0,0,0,0,0,0,0,0,0,0,0,0,0,0,0,0,0,0,0,0,0,0,0,0,0,0,0,0,0,0,0,0,0,0,0,0,0,0,0,0,0,0,0,2,29,109,212,229,479,479,479,479,480,479,478,476,472,462,452,449,450,447,448,450,454,457,461,465,469,472,474,476,478,479,480,484,488,490,492,493,494,496,498,498,499,500,502,507,504,493,458,337,256,256,256,259,265,273,278,17,9,3,1,265,793.0001,808.0001,816.0001,817.0001,817.0001,822.0001,828.0001,829.0001,829.0001,830.0001,832.0001,832.0001,834.0001,835.0001,836.0001,837.0001,837.0001,837.0001,838.0001,841.0001,843.0001,843.0001,843.0001,845.0001,848.0001,849.0001,849.0001,847.0001,846.0001,848.0001,850.0001,853.0001,855.0001,858.0001,860.0001,857.0001,855.0001,856.0001,857.0001,858.0001,860.0001,861.0001,863.0001,863.0001,863.0001,864.0001,865.0001,865.0001,865.0001,865.0001,865.0001,864.0001,865.0001,870.0001,876.0001,879.0001,879.0001,876.0001,873.0001,876.0001,880.0001,880.0001,879.0001,878.0001,875.0001,874.0001,874.0001,874.0001,874.0001,874.0001,874.0001,876.0001,878.0001,878.0001,878.0001,880.0001,882.0001,883.0001,883.0001,884.0001,885.0001,886.0001,887.0001,888.0001,888.0001,888.0001,888.0001,888.0001,888.0001,888.0001,888.0001,888.0001,885.0001,884.0001,883.0001,883.0001,884.0001,887.0001,889.0001,889.0001,889.0001,890.0001,891.0001,892.0001,894.0001,896.0001,897.0001,896.0001,894.0001,894.0001,894.0001,892.0001,890.0001,889.0001,889.0001,891.0001,894.0001,895.0001,896.0001,897.0001,900.0001,901.0001,902.0001,898.0001,894.0001,894.0001,894.0001,894.0001,894.0001,894.0001,894.0001,894.0001,894.0001,895.0001,896.0001,899.0001,902.0001,904.0001,905.0001,904.0001,902.0001,901.0001,900.0001,899.0001,898.0001,897.0001,897.0001,900.0001,903.0001,905.0001,905.0001,905.0001,903.0001,901.0001,900.0001,900.0001,901.0001,900.0001,899.0001,898.0001,896.0001,895.0001,894.0001,898.0001,902.0001,902.0001,902.0001,902.0001,902.0001,901.0001,902.0001,904.0001,908.0001,908.0001,908.0001,908.0001,908.0001,908.0001,908.0001,905.0001,903.0001,903.0001,905.0001,906.0001,907.0001,907.0001,907.0001,909.0001,910.0001,908.0001,906.0001,903.0001,901.0001,899.0001,899.0001,900.0001,903.0001,907.0001,912.0001,913.0001,912.0001,908.0001,903.0001,898.0001,895.0001,896.0001,898.0001,900.0001,901.0001,903.0001,904.0001,904.0001,903.0001,903.0001,903.0001,905.0001,907.0001,908.0001,908.0001,905.0001,903.0001,900.0001,897.0001,900.0001,904.0001,905.0001,906.0001,904.0001,901.0001,897.0001,893.0001,893.0001,894.0001,898.0001,902.0001,900.0001,896.0001,896.0001,898.0001,899.0001,901.0001,901.0001,902.0001,906.0001,910.0001,910.0001,908.0001,905.0001,901.0001,898.0001,894.0001,886.0001,879.0001,879.0001,882.0001,886.0001,890.0001,893.0001,894.0001,897.0001,899.0001,901.0001,902.0001,897.0001,890.0001,887.0001,885.0001,889.0001,892.0001,891.0001,889.0001,886.0001,883.0001,882.0001,882.0001,882.0001,884.0001,883.0001,882.0001,881.0001,880.0001,880.0001,879.0001,879.0001,877.0001,878.0001,880.0001,881.0001,882.0001,884.0001,886.0001,884.0001,880.0001,879.0001,878.0001,875.0001,871.0001,868.0001,866.0001,866.0001,864.0001,862.0001,861.0001,866.0001,866.0001,832.0001,793.0001,827.0001,875.0001,876.0001,869.0001,874.0001,877.0001,872.0001,864.0001,602,74,39,0,0,0,0,0,0,0,0,0,0,0,0,0,0,0,0,0,0,0,0,0,0,0,0,0,0,0,0,0,0,0,0,0,0,0,0,0,0,0,0,0,0,0,0,0,0,0,0,0,0,0,0,0,0,0,0,0,0,0,0,0,0,0,0,0,0,0,0,0,0,0,0,0,0,0,0,0,0,0,0,0,0,0,0,0,0,0,0,0,0,0,0,0,0,0,0,0,0,0,0,0,0,0,0,0,0,0,0,0,0,0,0,0,0,0,0,0,0,0,0,0,0,0,0,0,0
0,0,0,0,0,0,0,0,0,0,0,0,0,0,0,0,0,0,0,0,0,0,0,0,0,0,0,0,0,0,0,0,0,0,0,0,0,0,0,0,0,0,0,0,0,0,0,0,0,0,0,0,0,0,0,0,0,0,0,0,0,0,0,0,0,0,0,0,0,0,0,0,0,0,0,0,0,0,0,0,0,0,0,0,0,0,0,0,0,0,0,0,0,0,0,0,0,0,0,0,0,0,0,0,0,0,0,0,0,0,0,0,0,0,0,0,0,0,0,0,0,0,0,0,0,0,0,0,0,0,0,0,0,0,0,34,84,174,221,228,477,477,479,479,478,478,476,474,470,461,452,450,448,447,447,450,454,457,461,465,468,470,473,475,477,479,482,484,488,490,492,494,496,497,498,499,500,501,502,505,505,502,476,387,263,256,256,258,263,270,273,17,12,3,0,264,797.0001,813.0001,826.0001,828.0001,827.0001,832.0001,836.0001,838.0001,839.0001,840.0001,841.0001,840.0001,840.0001,841.0001,842.0001,845.0001,846.0001,847.0001,847.0001,850.0001,853.0001,854.0001,853.0001,855.0001,856.0001,855.0001,855.0001,854.0001,855.0001,857.0001,859.0001,861.0001,863.0001,865.0001,866.0001,865.0001,864.0001,864.0001,866.0001,867.0001,868.0001,869.0001,870.0001,871.0001,871.0001,872.0001,872.0001,872.0001,872.0001,872.0001,872.0001,872.0001,874.0001,879.0001,883.0001,884.0001,884.0001,883.0001,881.0001,884.0001,888.0001,888.0001,888.0001,886.0001,885.0001,884.0001,883.0001,883.0001,883.0001,883.0001,883.0001,885.0001,887.0001,887.0001,888.0001,889.0001,891.0001,891.0001,891.0001,892.0001,893.0001,894.0001,894.0001,897.0001,898.0001,898.0001,898.0001,898.0001,898.0001,898.0001,898.0001,898.0001,896.0001,895.0001,894.0001,893.0001,893.0001,896.0001,899.0001,899.0001,899.0001,899.0001,899.0001,900.0001,901.0001,903.0001,904.0001,903.0001,901.0001,901.0001,901.0001,899.0001,898.0001,897.0001,898.0001,900.0001,904.0001,905.0001,906.0001,907.0001,908.0001,908.0001,908.0001,906.0001,904.0001,904.0001,904.0001,904.0001,904.0001,904.0001,904.0001,904.0001,905.0001,906.0001,907.0001,908.0001,909.0001,910.0001,910.0001,910.0001,909.0001,908.0001,907.0001,906.0001,906.0001,906.0001,907.0001,910.0001,912.0001,913.0001,913.0001,913.0001,911.0001,909.0001,906.0001,906.0001,906.0001,906.0001,905.0001,905.0001,905.0001,904.0001,903.0001,907.0001,912.0001,913.0001,912.0001,912.0001,912.0001,912.0001,912.0001,913.0001,916.0001,916.0001,916.0001,916.0001,917.0001,917.0001,917.0001,913.0001,910.0001,911.0001,912.0001,913.0001,914.0001,914.0001,914.0001,916.0001,916.0001,915.0001,913.0001,912.0001,912.0001,910.0001,909.0001,911.0001,913.0001,917.0001,919.0001,920.0001,919.0001,917.0001,913.0001,908.0001,903.0001,904.0001,906.0001,908.0001,910.0001,913.0001,914.0001,913.0001,912.0001,912.0001,912.0001,914.0001,916.0001,915.0001,915.0001,914.0001,913.0001,910.0001,908.0001,910.0001,914.0001,915.0001,915.0001,914.0001,912.0001,908.0001,904.0001,903.0001,903.0001,907.0001,910.0001,907.0001,902.0001,903.0001,904.0001,906.0001,909.0001,909.0001,911.0001,915.0001,918.0001,918.0001,916.0001,913.0001,909.0001,907.0001,904.0001,897.0001,892.0001,892.0001,894.0001,897.0001,901.0001,902.0001,904.0001,907.0001,909.0001,911.0001,912.0001,906.0001,900.0001,896.0001,894.0001,898.0001,902.0001,902.0001,901.0001,898.0001,895.0001,893.0001,892.0001,892.0001,892.0001,891.0001,890.0001,889.0001,888.0001,888.0001,889.0001,889.0001,887.0001,888.0001,888.0001,889.0001,889.0001,891.0001,892.0001,891.0001,889.0001,889.0001,889.0001,885.0001,881.0001,880.0001,879.0001,879.0001,879.0001,877.0001,873.0001,875.0001,871.0001,843.0001,821.0001,841.0001,883.0001,889.0001,887.0001,887.0001,884.0001,880.0001,874.0001,614,348,47,12,0,0,0,0,0,0,0,0,0,0,0,0,0,0,0,0,0,0,0,0,0,0,0,0,0,0,0,0,0,0,0,0,0,0,0,0,0,0,0,0,0,0,0,0,0,0,0,0,0,0,0,0,0,0,0,0,0,0,0,0,0,0,0,0,0,0,0,0,0,0,0,0,0,0,0,0,0,0,0,0,0,0,0,0,0,0,0,0,0,0,0,0,0,0,0,0,0,0,0,0,0,0,0,0,0,0,0,0,0,0,0,0,0,0,0,0,0,0,0,0,0,0,0,0,0
0,0,0,0,0,0,0,0,0,0,0,0,0,0,0,0,0,0,0,0,0,0,0,0,0,0,0,0,0,0,0,0,0,0,0,0,0,0,0,0,0,0,0,0,0,0,0,0,0,0,0,0,0,0,0,0,0,0,0,0,0,0,0,0,0,0,0,0,0,0,0,0,0,0,0,0,0,0,0,0,0,0,0,0,0,0,0,0,0,0,0,0,0,0,0,0,0,0,0,0,0,0,0,0,0,0,0,0,0,0,0,0,0,0,0,0,0,0,0,0,0,0,0,0,0,0,0,0,0,0,0,0,0,0,0,78,181,207,215,473,474,475,475,474,474,474,473,470,466,459,453,449,446,445,446,449,454,457,461,463,466,468,471,473,475,478,482,483,485,488,491,493,496,498,500,500,500,500,502,505,507,511,504,415,295,261,257,258,264,268,270,15,10,2,0,271,813.0001,825.0001,833.0001,835.0001,835.0001,839.0001,843.0001,845.0001,846.0001,847.0001,847.0001,846.0001,847.0001,847.0001,848.0001,852.0001,856.0001,858.0001,859.0001,861.0001,864.0001,861.0001,859.0001,859.0001,859.0001,859.0001,860.0001,862.0001,863.0001,864.0001,866.0001,868.0001,869.0001,870.0001,872.0001,872.0001,872.0001,873.0001,874.0001,874.0001,875.0001,876.0001,878.0001,879.0001,880.0001,880.0001,880.0001,879.0001,878.0001,877.0001,878.0001,880.0001,883.0001,885.0001,888.0001,889.0001,890.0001,890.0001,890.0001,890.0001,890.0001,890.0001,890.0001,890.0001,889.0001,889.0001,889.0001,889.0001,889.0001,889.0001,891.0001,893.0001,895.0001,895.0001,896.0001,897.0001,899.0001,900.0001,900.0001,900.0001,900.0001,900.0001,901.0001,902.0001,903.0001,903.0001,903.0001,903.0001,903.0001,903.0001,903.0001,905.0001,907.0001,906.0001,904.0001,902.0001,902.0001,904.0001,907.0001,907.0001,906.0001,905.0001,903.0001,904.0001,905.0001,906.0001,905.0001,904.0001,904.0001,904.0001,904.0001,903.0001,903.0001,903.0001,906.0001,909.0001,914.0001,915.0001,916.0001,916.0001,916.0001,915.0001,913.0001,913.0001,913.0001,913.0001,913.0001,913.0001,913.0001,912.0001,913.0001,914.0001,916.0001,917.0001,917.0001,915.0001,915.0001,915.0001,916.0001,917.0001,917.0001,915.0001,913.0001,914.0001,916.0001,918.0001,921.0001,921.0001,920.0001,921.0001,921.0001,919.0001,917.0001,914.0001,912.0001,909.0001,907.0001,909.0001,912.0001,913.0001,914.0001,914.0001,914.0001,917.0001,919.0001,920.0001,919.0001,919.0001,919.0001,919.0001,919.0001,919.0001,920.0001,919.0001,920.0001,921.0001,923.0001,924.0001,923.0001,921.0001,918.0001,918.0001,919.0001,921.0001,922.0001,923.0001,922.0001,920.0001,919.0001,918.0001,919.0001,922.0001,924.0001,923.0001,921.0001,923.0001,925.0001,926.0001,927.0001,927.0001,927.0001,927.0001,925.0001,918.0001,910.0001,911.0001,914.0001,916.0001,917.0001,919.0001,920.0001,920.0001,921.0001,921.0001,922.0001,923.0001,923.0001,921.0001,920.0001,920.0001,920.0001,919.0001,918.0001,919.0001,920.0001,920.0001,920.0001,919.0001,918.0001,915.0001,913.0001,911.0001,910.0001,910.0001,910.0001,907.0001,904.0001,904.0001,906.0001,909.0001,913.0001,914.0001,915.0001,917.0001,920.0001,920.0001,919.0001,917.0001,915.0001,915.0001,914.0001,909.0001,904.0001,905.0001,906.0001,907.0001,908.0001,908.0001,909.0001,914.0001,917.0001,917.0001,915.0001,911.0001,905.0001,901.0001,899.0001,903.0001,907.0001,909.0001,908.0001,905.0001,902.0001,898.0001,896.0001,897.0001,898.0001,897.0001,896.0001,896.0001,896.0001,897.0001,899.0001,898.0001,894.0001,893.0001,892.0001,891.0001,891.0001,890.0001,890.0001,890.0001,891.0001,892.0001,893.0001,891.0001,888.0001,890.0001,892.0001,890.0001,886.0001,883.0001,880.0001,880.0001,878.0001,872.0001,868.0001,876.0001,885.0001,888.0001,888.0001,888.0001,886.0001,884.0001,880.0001,877.0001,614,602,323,278,0,0,0,0,0,0,0,0,0,0,0,0,0,0,0,0,0,0,0,0,0,0,0,0,0,0,0,0,0,0,0,0,0,0,0,0,0,0,0,0,0,0,0,0,0,0,0,0,0,0,0,0,0,0,0,0,0,0,0,0,0,0,0,0,0,0,0,0,0,0,0,0,0,0,0,0,0,0,0,0,0,0,0,0,0,0,0,0,0,0,0,0,0,0,0,0,0,0,0,0,0,0,0,0,0,0,0,0,0,0,0,0,0,0,0,0,0,0,0,0,0,0,0,0
0,0,0,0,0,0,0,0,0,0,0,0,0,0,0,0,0,0,0,0,0,0,0,0,0,0,0,0,0,0,0,0,0,0,0,0,0,0,0,0,0,0,0,0,0,0,0,0,0,0,0,0,0,0,0,0,0,0,0,0,0,0,0,0,0,0,0,0,0,0,0,0,0,0,0,0,0,0,0,0,0,0,0,0,0,0,0,0,0,0,0,0,0,0,0,0,0,0,0,0,0,0,0,0,0,0,0,0,0,0,0,0,0,0,0,0,0,0,0,0,0,0,0,0,0,0,0,0,0,0,0,0,0,0,16,111,731,737,722,467,471,473,474,473,471,472,471,468,463,458,453,449,445,444,445,449,454,457,461,463,464,466,469,471,473,476,480,482,484,487,490,492,495,497,499,499,500,501,502,504,507,511,511,425,330,264,258,259,265,268,270,12,7,0,0,280,832.0001,842.0001,844.0001,846.0001,847.0001,850.0001,853.0001,855.0001,856.0001,856.0001,855.0001,854.0001,854.0001,855.0001,857.0001,861.0001,866.0001,869.0001,871.0001,873.0001,873.0001,871.0001,868.0001,866.0001,866.0001,865.0001,867.0001,869.0001,872.0001,873.0001,874.0001,875.0001,876.0001,877.0001,878.0001,880.0001,882.0001,883.0001,884.0001,884.0001,884.0001,884.0001,885.0001,886.0001,887.0001,887.0001,887.0001,887.0001,886.0001,886.0001,887.0001,889.0001,893.0001,894.0001,894.0001,895.0001,897.0001,898.0001,899.0001,898.0001,898.0001,898.0001,898.0001,898.0001,898.0001,898.0001,898.0001,898.0001,898.0001,899.0001,900.0001,902.0001,904.0001,906.0001,906.0001,907.0001,908.0001,908.0001,908.0001,908.0001,908.0001,908.0001,908.0001,909.0001,910.0001,910.0001,910.0001,910.0001,910.0001,910.0001,911.0001,914.0001,915.0001,914.0001,912.0001,910.0001,909.0001,911.0001,913.0001,914.0001,914.0001,912.0001,909.0001,910.0001,911.0001,909.0001,907.0001,908.0001,910.0001,911.0001,910.0001,911.0001,911.0001,912.0001,913.0001,917.0001,922.0001,924.0001,925.0001,925.0001,925.0001,922.0001,920.0001,921.0001,923.0001,923.0001,923.0001,923.0001,923.0001,923.0001,923.0001,925.0001,926.0001,926.0001,926.0001,924.0001,922.0001,921.0001,921.0001,922.0001,923.0001,921.0001,920.0001,921.0001,924.0001,928.0001,931.0001,930.0001,928.0001,929.0001,929.0001,927.0001,924.0001,921.0001,918.0001,916.0001,913.0001,916.0001,920.0001,923.0001,925.0001,925.0001,924.0001,926.0001,928.0001,928.0001,928.0001,928.0001,928.0001,928.0001,928.0001,927.0001,927.0001,927.0001,927.0001,929.0001,931.0001,932.0001,931.0001,929.0001,927.0001,927.0001,927.0001,929.0001,932.0001,932.0001,932.0001,928.0001,925.0001,925.0001,927.0001,933.0001,937.0001,936.0001,933.0001,934.0001,936.0001,936.0001,935.0001,935.0001,935.0001,936.0001,936.0001,930.0001,924.0001,924.0001,925.0001,925.0001,926.0001,926.0001,927.0001,928.0001,929.0001,930.0001,932.0001,932.0001,932.0001,929.0001,927.0001,928.0001,928.0001,929.0001,929.0001,928.0001,928.0001,928.0001,928.0001,927.0001,926.0001,924.0001,923.0001,921.0001,918.0001,917.0001,916.0001,914.0001,911.0001,912.0001,913.0001,916.0001,920.0001,921.0001,922.0001,924.0001,925.0001,926.0001,925.0001,925.0001,925.0001,925.0001,925.0001,922.0001,920.0001,920.0001,921.0001,920.0001,919.0001,918.0001,918.0001,922.0001,926.0001,925.0001,921.0001,917.0001,912.0001,908.0001,906.0001,910.0001,914.0001,916.0001,917.0001,915.0001,912.0001,909.0001,906.0001,907.0001,906.0001,905.0001,904.0001,904.0001,904.0001,907.0001,909.0001,907.0001,904.0001,902.0001,900.0001,898.0001,897.0001,895.0001,894.0001,895.0001,897.0001,900.0001,902.0001,901.0001,900.0001,903.0001,906.0001,903.0001,898.0001,894.0001,892.0001,889.0001,887.0001,891.0001,895.0001,894.0001,892.0001,893.0001,894.0001,893.0001,891.0001,889.0001,887.0001,885.0001,881.0001,884.0001,619,564,512,256,0,0,0,0,0,0,0,0,0,0,0,0,0,0,0,0,0,0,0,0,0,0,0,0,0,0,0,0,0,0,0,0,0,0,0,0,0,0,0,0,0,0,0,0,0,0,0,0,0,0,0,0,0,0,0,0,0,0,0,0,0,0,0,0,0,0,0,0,0,0,0,0,0,0,0,0,0,0,0,0,0,0,0,0,0,0,0,0,0,0,0,0,0,0,0,0,0,0,0,0,0,0,0,0,0,0,0,0,0,0,0,0,0,0,0,0,0,0,0,0,0,0
0,0,0,0,0,0,0,0,0,0,0,0,0,0,0,0,0,0,0,0,0,0,0,0,0,0,0,0,0,0,0,0,0,0,0,0,0,0,0,0,0,0,0,0,0,0,0,0,0,0,0,0,0,0,0,0,0,0,0,0,0,0,0,0,0,0,0,0,0,0,0,0,0,0,0,0,0,0,0,0,0,0,0,0,0,0,0,0,0,0,0,0,0,0,0,0,0,0,0,0,0,0,0,0,0,0,0,0,0,0,0,0,0,0,0,0,0,0,0,0,0,0,0,0,0,0,0,0,0,0,0,0,0,21,66,154,465,473,465,467,471,473,474,473,471,471,471,467,461,457,452,448,446,445,446,449,454,457,461,462,463,465,468,470,472,474,478,480,484,486,489,490,492,494,497,498,500,502,504,504,504,511,509,413,280,257,258,256,263,270,271,9,2,0,0,288,847.0001,854.0001,854.0001,856.0001,859.0001,861.0001,863.0001,864.0001,864.0001,863.0001,861.0001,860.0001,859.0001,861.0001,864.0001,869.0001,874.0001,877.0001,880.0001,880.0001,880.0001,877.0001,874.0001,873.0001,872.0001,872.0001,873.0001,875.0001,878.0001,879.0001,880.0001,881.0001,882.0001,883.0001,884.0001,887.0001,889.0001,890.0001,891.0001,891.0001,891.0001,891.0001,891.0001,892.0001,892.0001,893.0001,893.0001,894.0001,894.0001,896.0001,898.0001,899.0001,900.0001,900.0001,901.0001,902.0001,904.0001,906.0001,906.0001,905.0001,905.0001,905.0001,905.0001,905.0001,905.0001,905.0001,905.0001,905.0001,905.0001,906.0001,908.0001,910.0001,912.0001,913.0001,914.0001,914.0001,914.0001,915.0001,916.0001,916.0001,915.0001,915.0001,915.0001,916.0001,917.0001,918.0001,917.0001,917.0001,917.0001,917.0001,919.0001,920.0001,919.0001,918.0001,916.0001,915.0001,914.0001,915.0001,917.0001,919.0001,920.0001,917.0001,914.0001,915.0001,916.0001,913.0001,909.0001,912.0001,917.0001,917.0001,917.0001,918.0001,918.0001,918.0001,919.0001,922.0001,927.0001,929.0001,930.0001,932.0001,932.0001,929.0001,927.0001,928.0001,930.0001,930.0001,930.0001,930.0001,930.0001,930.0001,930.0001,930.0001,931.0001,930.0001,929.0001,928.0001,926.0001,926.0001,927.0001,926.0001,925.0001,924.0001,924.0001,927.0001,930.0001,934.0001,937.0001,936.0001,934.0001,935.0001,936.0001,934.0001,932.0001,928.0001,925.0001,924.0001,925.0001,927.0001,931.0001,934.0001,935.0001,935.0001,934.0001,934.0001,934.0001,934.0001,934.0001,934.0001,934.0001,934.0001,934.0001,933.0001,933.0001,934.0001,935.0001,935.0001,936.0001,937.0001,938.0001,936.0001,933.0001,933.0001,933.0001,935.0001,937.0001,938.0001,937.0001,934.0001,931.0001,931.0001,933.0001,939.0001,945.0001,945.0001,943.0001,941.0001,940.0001,940.0001,940.0001,940.0001,940.0001,941.0001,940.0001,939.0001,937.0001,936.0001,936.0001,934.0001,933.0001,933.0001,934.0001,934.0001,934.0001,936.0001,937.0001,939.0001,939.0001,937.0001,935.0001,935.0001,934.0001,934.0001,934.0001,934.0001,934.0001,935.0001,934.0001,933.0001,931.0001,930.0001,930.0001,928.0001,926.0001,924.0001,923.0001,922.0001,920.0001,920.0001,922.0001,923.0001,926.0001,927.0001,928.0001,930.0001,931.0001,931.0001,931.0001,931.0001,932.0001,932.0001,932.0001,932.0001,932.0001,932.0001,931.0001,929.0001,926.0001,925.0001,925.0001,928.0001,931.0001,930.0001,927.0001,923.0001,917.0001,913.0001,911.0001,914.0001,918.0001,920.0001,922.0001,921.0001,920.0001,918.0001,917.0001,916.0001,914.0001,913.0001,911.0001,911.0001,911.0001,913.0001,915.0001,915.0001,912.0001,910.0001,909.0001,907.0001,905.0001,904.0001,903.0001,903.0001,905.0001,908.0001,910.0001,910.0001,910.0001,914.0001,917.0001,913.0001,908.0001,905.0001,903.0001,900.0001,896.0001,896.0001,897.0001,898.0001,900.0001,900.0001,900.0001,898.0001,895.0001,892.0001,889.0001,888.0001,890.0001,643,642,589,526,0,0,0,0,0,0,0,0,0,0,0,0,0,0,0,0,0,0,0,0,0,0,0,0,0,0,0,0,0,0,0,0,0,0,0,0,0,0,0,0,0,0,0,0,0,0,0,0,0,0,0,0,0,0,0,0,0,0,0,0,0,0,0,0,0,0,0,0,0,0,0,0,0,0,0,0,0,0,0,0,0,0,0,0,0,0,0,0,0,0,0,0,0,0,0,0,0,0,0,0,0,0,0,0,0,0,0,0,0,0,0,0,0,0,0,0,0,0,0,0,0,0,0
0,0,0,0,0,0,0,0,0,0,0,0,0,0,0,0,0,0,0,0,0,0,0,0,0,0,0,0,0,0,0,0,0,0,0,0,0,0,0,0,0,0,0,0,0,0,0,0,0,0,0,0,0,0,0,0,0,0,0,0,0,0,0,0,0,0,0,0,0,0,0,0,0,0,0,0,0,0,0,0,0,0,0,0,0,0,0,0,0,0,0,0,0,0,0,0,0,0,0,0,0,0,0,0,0,0,0,0,0,0,0,0,0,0,0,0,0,0,0,0,0,0,0,0,0,0,0,0,0,0,0,0,0,57,122,179,462,467,464,466,469,472,473,472,469,470,469,466,460,456,451,448,446,445,446,449,454,457,461,462,463,465,469,471,473,474,478,481,485,487,489,490,492,493,495,497,499,501,504,504,504,511,506,403,263,256,258,260,264,269,270,6,0,0,0,296,861.0001,869.0001,865.0001,867.0001,870.0001,872.0001,874.0001,874.0001,873.0001,871.0001,869.0001,867.0001,866.0001,869.0001,872.0001,879.0001,883.0001,886.0001,888.0001,889.0001,888.0001,885.0001,882.0001,881.0001,879.0001,880.0001,881.0001,883.0001,885.0001,887.0001,888.0001,890.0001,891.0001,892.0001,893.0001,895.0001,896.0001,898.0001,899.0001,899.0001,899.0001,899.0001,900.0001,900.0001,900.0001,901.0001,902.0001,903.0001,905.0001,907.0001,909.0001,909.0001,909.0001,909.0001,909.0001,911.0001,913.0001,915.0001,915.0001,915.0001,915.0001,914.0001,915.0001,915.0001,915.0001,915.0001,915.0001,914.0001,915.0001,915.0001,917.0001,919.0001,921.0001,922.0001,923.0001,922.0001,922.0001,923.0001,924.0001,925.0001,925.0001,925.0001,926.0001,926.0001,927.0001,927.0001,927.0001,927.0001,927.0001,927.0001,927.0001,926.0001,925.0001,925.0001,925.0001,924.0001,923.0001,923.0001,924.0001,926.0001,928.0001,925.0001,922.0001,923.0001,924.0001,920.0001,916.0001,920.0001,925.0001,925.0001,925.0001,927.0001,928.0001,928.0001,928.0001,930.0001,934.0001,937.0001,939.0001,941.0001,942.0001,940.0001,938.0001,939.0001,939.0001,940.0001,939.0001,939.0001,939.0001,939.0001,939.0001,940.0001,940.0001,939.0001,937.0001,936.0001,936.0001,935.0001,935.0001,934.0001,933.0001,933.0001,934.0001,937.0001,940.0001,942.0001,944.0001,944.0001,943.0001,944.0001,945.0001,944.0001,942.0001,939.0001,936.0001,935.0001,936.0001,939.0001,942.0001,944.0001,945.0001,944.0001,943.0001,943.0001,944.0001,944.0001,944.0001,944.0001,944.0001,944.0001,944.0001,943.0001,944.0001,944.0001,945.0001,945.0001,945.0001,946.0001,946.0001,945.0001,943.0001,942.0001,943.0001,945.0001,947.0001,948.0001,947.0001,944.0001,939.0001,939.0001,941.0001,948.0001,953.0001,953.0001,951.0001,948.0001,946.0001,946.0001,946.0001,946.0001,946.0001,946.0001,946.0001,947.0001,949.0001,948.0001,947.0001,944.0001,942.0001,941.0001,941.0001,941.0001,942.0001,944.0001,947.0001,948.0001,949.0001,948.0001,946.0001,945.0001,943.0001,943.0001,943.0001,943.0001,943.0001,944.0001,943.0001,941.0001,939.0001,939.0001,939.0001,938.0001,936.0001,935.0001,934.0001,933.0001,933.0001,933.0001,934.0001,935.0001,936.0001,937.0001,938.0001,938.0001,938.0001,938.0001,939.0001,940.0001,943.0001,943.0001,943.0001,944.0001,944.0001,943.0001,941.0001,938.0001,934.0001,932.0001,930.0001,934.0001,937.0001,936.0001,933.0001,929.0001,924.0001,921.0001,919.0001,921.0001,926.0001,928.0001,930.0001,931.0001,931.0001,931.0001,930.0001,929.0001,927.0001,925.0001,922.0001,921.0001,921.0001,923.0001,925.0001,925.0001,922.0001,922.0001,921.0001,919.0001,917.0001,915.0001,914.0001,914.0001,915.0001,919.0001,922.0001,923.0001,922.0001,925.0001,926.0001,924.0001,920.0001,919.0001,917.0001,914.0001,910.0001,908.0001,907.0001,909.0001,911.0001,912.0001,911.0001,908.0001,904.0001,900.0001,898.0001,899.0001,901.0001,658,663,624,570,273,0,0,0,0,0,0,0,0,0,0,0,0,0,0,0,0,0,0,0,0,0,0,0,0,0,0,0,0,0,0,0,0,0,0,0,0,0,0,0,0,0,0,0,0,0,0,0,0,0,0,0,0,0,0,0,0,0,0,0,0,0,0,0,0,0,0,0,0,0,0,0,0,0,0,0,0,0,0,0,0,0,0,0,0,0,0,0,0,0,0,0,0,0,0,0,0,0,0,0,0,0,0,0,0,0,0,0,0,0,0,0,0,0,0,0,0,0,0,0,0,0,0
0,0,0,0,0,0,0,0,0,0,0,0,0,0,0,0,0,0,0,0,0,0,0,0,0,0,0,0,0,0,0,0,0,0,0,0,0,0,0,0,0,0,0,0,0,0,0,0,0,0,0,0,0,0,0,0,0,0,0,0,0,0,0,0,0,0,0,0,0,0,0,0,0,0,0,0,0,0,0,0,0,0,0,0,0,0,0,0,0,0,0,0,0,0,0,0,0,0,0,0,0,0,0,0,0,0,0,0,0,0,0,0,0,0,0,0,0,0,0,0,0,0,0,0,0,0,0,0,0,0,0,2,22,90,179,203,461,464,463,465,468,470,471,470,468,469,468,464,459,455,450,447,444,445,446,449,454,457,461,463,465,467,471,473,475,477,480,483,487,490,492,492,493,494,495,496,496,499,502,505,506,511,511,396,256,256,257,260,264,268,266,4,0,0,0,300,874.0001,877.0001,871.0001,875.0001,879.0001,882.0001,883.0001,883.0001,883.0001,881.0001,879.0001,876.0001,875.0001,876.0001,879.0001,885.0001,890.0001,893.0001,894.0001,893.0001,892.0001,890.0001,887.0001,886.0001,886.0001,885.0001,886.0001,888.0001,891.0001,893.0001,895.0001,896.0001,897.0001,898.0001,899.0001,902.0001,903.0001,904.0001,905.0001,905.0001,905.0001,906.0001,906.0001,907.0001,909.0001,910.0001,911.0001,912.0001,913.0001,915.0001,916.0001,916.0001,916.0001,915.0001,915.0001,916.0001,918.0001,920.0001,922.0001,921.0001,921.0001,921.0001,921.0001,921.0001,921.0001,921.0001,921.0001,921.0001,921.0001,922.0001,923.0001,925.0001,927.0001,928.0001,929.0001,928.0001,929.0001,929.0001,930.0001,932.0001,934.0001,935.0001,935.0001,935.0001,934.0001,934.0001,934.0001,934.0001,934.0001,934.0001,934.0001,932.0001,931.0001,932.0001,933.0001,932.0001,931.0001,930.0001,930.0001,932.0001,933.0001,932.0001,930.0001,930.0001,930.0001,928.0001,926.0001,929.0001,933.0001,934.0001,935.0001,935.0001,935.0001,935.0001,935.0001,937.0001,940.0001,942.0001,945.0001,949.0001,952.0001,951.0001,949.0001,948.0001,948.0001,948.0001,948.0001,948.0001,948.0001,948.0001,948.0001,949.0001,949.0001,949.0001,947.0001,946.0001,945.0001,944.0001,944.0001,942.0001,941.0001,942.0001,944.0001,947.0001,949.0001,950.0001,949.0001,950.0001,951.0001,952.0001,952.0001,952.0001,952.0001,949.0001,947.0001,945.0001,945.0001,947.0001,950.0001,951.0001,952.0001,950.0001,949.0001,951.0001,953.0001,954.0001,953.0001,953.0001,953.0001,953.0001,953.0001,954.0001,955.0001,954.0001,953.0001,953.0001,954.0001,953.0001,952.0001,952.0001,951.0001,951.0001,951.0001,953.0001,955.0001,956.0001,955.0001,951.0001,947.0001,947.0001,949.0001,955.0001,961.0001,959.0001,956.0001,953.0001,951.0001,951.0001,951.0001,951.0001,951.0001,951.0001,951.0001,953.0001,954.0001,954.0001,952.0001,949.0001,946.0001,944.0001,943.0001,945.0001,948.0001,951.0001,954.0001,956.0001,957.0001,957.0001,955.0001,953.0001,952.0001,952.0001,952.0001,952.0001,952.0001,952.0001,952.0001,950.0001,948.0001,948.0001,948.0001,947.0001,945.0001,945.0001,945.0001,944.0001,943.0001,943.0001,943.0001,945.0001,947.0001,947.0001,947.0001,946.0001,945.0001,945.0001,946.0001,948.0001,950.0001,951.0001,951.0001,951.0001,950.0001,949.0001,947.0001,943.0001,938.0001,935.0001,934.0001,938.0001,942.0001,941.0001,938.0001,935.0001,932.0001,930.0001,929.0001,931.0001,934.0001,937.0001,938.0001,940.0001,942.0001,941.0001,940.0001,941.0001,940.0001,937.0001,934.0001,932.0001,931.0001,932.0001,934.0001,934.0001,932.0001,931.0001,930.0001,929.0001,927.0001,925.0001,924.0001,923.0001,924.0001,929.0001,934.0001,934.0001,933.0001,932.0001,931.0001,930.0001,930.0001,930.0001,930.0001,928.0001,925.0001,923.0001,921.0001,922.0001,924.0001,924.0001,923.0001,920.0001,916.0001,910.0001,907.0001,909.0001,914.0001,670,675,657,623,298,0,0,0,0,0,0,0,0,0,0,0,0,0,0,0,0,0,0,0,0,0,0,0,0,0,0,0,0,0,0,0,0,0,0,0,0,0,0,0,0,0,0,0,0,0,0,0,0,0,0,0,0,0,0,0,0,0,0,0,0,0,0,0,0,0,0,0,0,0,0,0,0,0,0,0,0,0,0,0,0,0,0,0,0,0,0,0,0,0,0,0,0,0,0,0,0,0,0,0,0,0,0,0,0,0,0,0,0,0,0,0,0,0,0,0,0,0,0,0,0,0,0
0,0,0,0,0,0,0,0,0,0,0,0,0,0,0,0,0,0,0,0,0,0,0,0,0,0,0,0,0,0,0,0,0,0,0,0,0,0,0,0,0,0,0,0,0,0,0,0,0,0,0,0,0,0,0,0,0,0,0,0,0,0,0,0,0,0,0,0,0,0,0,0,0,0,0,0,0,0,0,0,0,0,0,0,0,0,0,0,0,0,0,0,0,0,0,0,0,0,0,0,0,0,0,0,0,0,0,0,0,0,0,0,0,0,0,0,0,0,0,0,0,0,0,0,0,0,0,0,0,0,0,22,65,150,206,212,460,461,463,465,468,469,470,469,468,468,468,463,458,454,449,447,444,445,446,449,454,457,461,465,469,471,474,476,478,480,483,486,490,492,493,494,495,495,496,496,496,499,502,507,507,508,480,382,256,256,257,261,264,265,262,2,0,2,15,318,881.0001,884.0001,879.0001,883.0001,887.0001,890.0001,892.0001,894.0001,894.0001,892.0001,890.0001,887.0001,886.0001,886.0001,890.0001,893.0001,897.0001,899.0001,901.0001,902.0001,900.0001,898.0001,895.0001,893.0001,892.0001,893.0001,895.0001,897.0001,899.0001,901.0001,903.0001,905.0001,906.0001,907.0001,908.0001,909.0001,910.0001,911.0001,912.0001,912.0001,912.0001,914.0001,915.0001,917.0001,920.0001,921.0001,921.0001,922.0001,923.0001,923.0001,924.0001,924.0001,924.0001,924.0001,925.0001,925.0001,927.0001,929.0001,930.0001,929.0001,929.0001,929.0001,929.0001,929.0001,929.0001,929.0001,929.0001,929.0001,929.0001,930.0001,932.0001,934.0001,936.0001,937.0001,937.0001,936.0001,935.0001,936.0001,937.0001,939.0001,942.0001,943.0001,944.0001,944.0001,942.0001,942.0001,943.0001,943.0001,943.0001,943.0001,943.0001,941.0001,939.0001,941.0001,944.0001,943.0001,942.0001,940.0001,939.0001,939.0001,940.0001,939.0001,939.0001,940.0001,941.0001,940.0001,939.0001,942.0001,945.0001,946.0001,946.0001,946.0001,946.0001,946.0001,946.0001,946.0001,948.0001,951.0001,954.0001,958.0001,961.0001,960.0001,959.0001,958.0001,957.0001,956.0001,957.0001,957.0001,957.0001,956.0001,957.0001,958.0001,959.0001,958.0001,957.0001,956.0001,955.0001,954.0001,953.0001,953.0001,953.0001,954.0001,957.0001,958.0001,959.0001,957.0001,955.0001,956.0001,958.0001,959.0001,960.0001,961.0001,961.0001,959.0001,957.0001,956.0001,956.0001,958.0001,960.0001,961.0001,961.0001,959.0001,957.0001,959.0001,964.0001,964.0001,964.0001,964.0001,964.0001,964.0001,964.0001,965.0001,966.0001,965.0001,964.0001,964.0001,963.0001,962.0001,961.0001,961.0001,962.0001,961.0001,962.0001,964.0001,966.0001,966.0001,966.0001,962.0001,958.0001,958.0001,960.0001,964.0001,968.0001,965.0001,961.0001,959.0001,958.0001,957.0001,957.0001,957.0001,957.0001,957.0001,957.0001,960.0001,963.0001,962.0001,961.0001,958.0001,955.0001,953.0001,952.0001,953.0001,956.0001,959.0001,962.0001,965.0001,967.0001,967.0001,966.0001,963.0001,961.0001,960.0001,960.0001,960.0001,960.0001,961.0001,960.0001,959.0001,957.0001,957.0001,957.0001,956.0001,955.0001,955.0001,955.0001,956.0001,956.0001,956.0001,956.0001,957.0001,957.0001,958.0001,957.0001,954.0001,952.0001,953.0001,955.0001,957.0001,960.0001,962.0001,963.0001,962.0001,959.0001,957.0001,954.0001,951.0001,947.0001,944.0001,943.0001,947.0001,950.0001,949.0001,947.0001,945.0001,942.0001,941.0001,940.0001,942.0001,944.0001,947.0001,949.0001,951.0001,953.0001,951.0001,950.0001,952.0001,952.0001,950.0001,946.0001,943.0001,942.0001,942.0001,943.0001,944.0001,943.0001,942.0001,941.0001,940.0001,938.0001,936.0001,935.0001,935.0001,937.0001,942.0001,947.0001,946.0001,944.0001,940.0001,938.0001,937.0001,938.0001,940.0001,941.0001,941.0001,939.0001,937.0001,935.0001,935.0001,936.0001,937.0001,935.0001,933.0001,930.0001,925.0001,920.0001,922.0001,924.0001,670,670,671,652,345,16,2,0,0,0,0,0,0,0,0,0,0,0,0,0,0,0,0,0,0,0,0,0,0,0,0,0,0,0,0,0,0,0,0,0,0,0,0,0,0,0,0,0,0,0,0,0,0,0,0,0,0,0,0,0,0,0,0,0,0,0,0,0,0,0,0,0,0,0,0,0,0,0,0,0,0,0,0,0,0,0,0,0,0,0,0,0,0,0,0,0,0,0,0,0,0,0,0,0,0,0,0,0,0,0,0,0,0,0,0,0,0,0,0,0,0,0,0,0,0,0,0
0,0,0,0,0,0,0,0,0,0,0,0,0,0,0,0,0,0,0,0,0,0,0,0,0,0,0,0,0,0,0,0,0,0,0,0,0,0,0,0,0,0,0,0,0,0,0,0,0,0,0,0,0,0,0,0,0,0,0,0,0,0,0,0,0,0,0,0,0,0,0,0,0,0,0,0,0,0,0,0,0,0,0,0,0,0,0,0,0,0,0,0,0,0,0,0,0,0,0,0,0,0,0,0,0,0,0,0,0,0,0,0,0,0,0,0,0,0,0,0,0,0,0,0,0,0,0,0,0,0,0,43,111,178,206,207,459,461,463,465,468,469,470,469,468,469,467,463,457,453,448,446,444,445,446,449,454,457,461,467,472,475,477,479,481,483,486,489,494,494,495,495,497,497,497,497,498,501,504,510,505,474,428,324,256,256,257,261,264,262,259,0,0,27,60,357,883.0001,886.0001,884.0001,888.0001,892.0001,895.0001,898.0001,901.0001,902.0001,901.0001,899.0001,896.0001,895.0001,895.0001,899.0001,901.0001,903.0001,904.0001,904.0001,907.0001,907.0001,905.0001,902.0001,899.0001,898.0001,900.0001,902.0001,904.0001,906.0001,907.0001,909.0001,911.0001,912.0001,913.0001,914.0001,916.0001,917.0001,919.0001,919.0001,919.0001,919.0001,920.0001,921.0001,924.0001,929.0001,930.0001,930.0001,930.0001,930.0001,929.0001,929.0001,929.0001,930.0001,931.0001,932.0001,933.0001,934.0001,936.0001,937.0001,936.0001,936.0001,935.0001,935.0001,935.0001,935.0001,935.0001,935.0001,935.0001,936.0001,937.0001,938.0001,940.0001,942.0001,943.0001,943.0001,941.0001,939.0001,941.0001,943.0001,946.0001,948.0001,949.0001,949.0001,949.0001,948.0001,948.0001,949.0001,949.0001,949.0001,950.0001,950.0001,949.0001,948.0001,950.0001,952.0001,952.0001,951.0001,949.0001,946.0001,946.0001,946.0001,945.0001,945.0001,949.0001,953.0001,952.0001,951.0001,953.0001,955.0001,955.0001,955.0001,955.0001,955.0001,956.0001,956.0001,954.0001,954.0001,958.0001,962.0001,966.0001,968.0001,968.0001,966.0001,965.0001,964.0001,964.0001,964.0001,964.0001,964.0001,963.0001,964.0001,966.0001,968.0001,967.0001,965.0001,963.0001,962.0001,962.0001,962.0001,964.0001,965.0001,967.0001,968.0001,968.0001,967.0001,964.0001,962.0001,962.0001,964.0001,966.0001,967.0001,968.0001,968.0001,967.0001,966.0001,967.0001,969.0001,971.0001,971.0001,972.0001,972.0001,969.0001,967.0001,968.0001,970.0001,970.0001,970.0001,971.0001,971.0001,971.0001,971.0001,972.0001,973.0001,973.0001,973.0001,971.0001,969.0001,969.0001,968.0001,968.0001,968.0001,967.0001,968.0001,970.0001,972.0001,973.0001,973.0001,971.0001,968.0001,969.0001,970.0001,973.0001,974.0001,970.0001,965.0001,965.0001,965.0001,964.0001,963.0001,963.0001,963.0001,963.0001,963.0001,967.0001,971.0001,971.0001,969.0001,968.0001,966.0001,965.0001,964.0001,963.0001,963.0001,966.0001,969.0001,973.0001,975.0001,976.0001,975.0001,971.0001,968.0001,967.0001,967.0001,967.0001,967.0001,967.0001,967.0001,966.0001,966.0001,965.0001,965.0001,965.0001,964.0001,964.0001,964.0001,965.0001,966.0001,966.0001,966.0001,966.0001,965.0001,966.0001,965.0001,962.0001,959.0001,961.0001,964.0001,966.0001,969.0001,971.0001,972.0001,971.0001,967.0001,965.0001,962.0001,960.0001,957.0001,956.0001,955.0001,957.0001,958.0001,958.0001,957.0001,954.0001,951.0001,950.0001,949.0001,950.0001,952.0001,954.0001,956.0001,958.0001,958.0001,956.0001,955.0001,958.0001,960.0001,958.0001,954.0001,951.0001,949.0001,949.0001,950.0001,951.0001,951.0001,950.0001,949.0001,947.0001,945.0001,944.0001,944.0001,945.0001,948.0001,953.0001,957.0001,955.0001,951.0001,947.0001,943.0001,942.0001,942.0001,945.0001,948.0001,949.0001,950.0001,948.0001,946.0001,945.0001,944.0001,945.0001,946.0001,945.0001,941.0001,938.0001,936.0001,938.0001,938.0001,668,654,652,652,367,77,23,0,0,0,0,0,0,0,0,0,0,0,0,0,0,0,0,0,0,0,0,0,0,0,0,0,0,0,0,0,0,0,0,0,0,0,0,0,0,0,0,0,0,0,0,0,0,0,0,0,0,0,0,0,0,0,0,0,0,0,0,0,0,0,0,0,0,0,0,0,0,0,0,0,0,0,0,0,0,0,0,0,0,0,0,0,0,0,0,0,0,0,0,0,0,0,0,0,0,0,0,0,0,0,0,0,0,0,0,0,0,0,0,0,0,0,0,0,0,0,0
0,0,0,0,0,0,0,0,0,0,0,0,0,0,0,0,0,0,0,0,0,0,0,0,0,0,0,0,0,0,0,0,0,0,0,0,0,0,0,0,0,0,0,0,0,0,0,0,0,0,0,0,0,0,0,0,0,0,0,0,0,0,0,0,0,0,0,0,0,0,0,0,0,0,0,0,0,0,0,0,0,0,0,0,0,0,0,0,0,0,0,0,0,0,0,0,0,0,0,0,0,0,0,0,0,0,0,0,0,0,0,0,0,0,0,0,0,0,0,0,0,0,0,0,0,0,0,0,0,0,0,73,172,197,205,204,458,460,462,464,468,469,470,469,468,468,466,461,456,453,449,447,444,445,445,449,453,455,460,466,473,475,478,480,483,485,488,491,494,494,494,495,498,498,498,500,501,502,503,511,504,457,394,304,258,256,258,261,264,260,257,0,0,45,108,632,888.0001,890.0001,890.0001,894.0001,898.0001,901.0001,904.0001,908.0001,910.0001,911.0001,910.0001,908.0001,906.0001,907.0001,911.0001,911.0001,913.0001,913.0001,913.0001,916.0001,916.0001,915.0001,913.0001,910.0001,909.0001,909.0001,911.0001,913.0001,916.0001,917.0001,918.0001,918.0001,919.0001,920.0001,921.0001,924.0001,927.0001,928.0001,929.0001,929.0001,930.0001,929.0001,930.0001,934.0001,940.0001,940.0001,939.0001,939.0001,938.0001,937.0001,937.0001,938.0001,940.0001,941.0001,941.0001,942.0001,943.0001,944.0001,945.0001,943.0001,944.0001,944.0001,945.0001,945.0001,945.0001,945.0001,945.0001,944.0001,944.0001,944.0001,944.0001,946.0001,949.0001,952.0001,953.0001,952.0001,950.0001,951.0001,953.0001,955.0001,957.0001,958.0001,960.0001,959.0001,958.0001,957.0001,957.0001,957.0001,955.0001,954.0001,954.0001,954.0001,956.0001,959.0001,962.0001,962.0001,961.0001,959.0001,956.0001,956.0001,955.0001,954.0001,953.0001,958.0001,963.0001,962.0001,961.0001,963.0001,966.0001,967.0001,967.0001,967.0001,967.0001,967.0001,966.0001,963.0001,962.0001,965.0001,969.0001,973.0001,975.0001,975.0001,974.0001,973.0001,972.0001,972.0001,973.0001,972.0001,972.0001,972.0001,973.0001,974.0001,976.0001,976.0001,976.0001,976.0001,975.0001,974.0001,974.0001,976.0001,978.0001,980.0001,980.0001,980.0001,979.0001,975.0001,971.0001,972.0001,973.0001,976.0001,978.0001,977.0001,975.0001,974.0001,974.0001,976.0001,980.0001,982.0001,983.0001,983.0001,983.0001,982.0001,981.0001,983.0001,986.0001,985.0001,983.0001,982.0001,980.0001,980.0001,980.0001,981.0001,982.0001,982.0001,982.0001,980.0001,979.0001,978.0001,981.0001,982.0001,982.0001,983.0001,984.0001,985.0001,985.0001,984.0001,983.0001,982.0001,980.0001,981.0001,982.0001,981.0001,978.0001,974.0001,971.0001,970.0001,971.0001,973.0001,976.0001,977.0001,977.0001,976.0001,975.0001,978.0001,983.0001,982.0001,981.0001,980.0001,979.0001,978.0001,977.0001,977.0001,977.0001,979.0001,982.0001,984.0001,987.0001,988.0001,987.0001,983.0001,979.0001,978.0001,979.0001,979.0001,980.0001,980.0001,980.0001,977.0001,975.0001,975.0001,976.0001,977.0001,978.0001,978.0001,978.0001,980.0001,981.0001,981.0001,980.0001,978.0001,977.0001,976.0001,976.0001,973.0001,970.0001,971.0001,972.0001,974.0001,977.0001,980.0001,983.0001,980.0001,978.0001,977.0001,975.0001,973.0001,971.0001,970.0001,969.0001,970.0001,971.0001,969.0001,967.0001,966.0001,963.0001,962.0001,961.0001,961.0001,963.0001,966.0001,968.0001,969.0001,969.0001,967.0001,965.0001,968.0001,969.0001,968.0001,965.0001,963.0001,962.0001,961.0001,961.0001,961.0001,960.0001,960.0001,959.0001,957.0001,955.0001,955.0001,957.0001,958.0001,961.0001,965.0001,969.0001,964.0001,958.0001,954.0001,951.0001,949.0001,948.0001,950.0001,953.0001,956.0001,958.0001,956.0001,954.0001,953.0001,953.0001,953.0001,955.0001,954.0001,955.0001,954.0001,952.0001,953.0001,951.0001,931.0001,639,660,646,657,375,48,0,0,0,0,0,0,0,0,0,0,0,0,0,0,0,0,0,0,0,0,0,0,0,0,0,0,0,0,0,0,0,0,0,0,0,0,0,0,0,0,0,0,0,0,0,0,0,0,0,0,0,0,0,0,0,0,0,0,0,0,0,0,0,0,0,0,0,0,0,0,0,0,0,0,0,0,0,0,0,0,0,0,0,0,0,0,0,0,0,0,0,0,0,0,0,0,0,0,0,0,0,0,0,0,0,0,0,0,0,0,0,0,0,0,0,0,0,0,0,0
0,0,0,0,0,0,0,0,0,0,0,0,0,0,0,0,0,0,0,0,0,0,0,0,0,0,0,0,0,0,0,0,0,0,0,0,0,0,0,0,0,0,0,0,0,0,0,0,0,0,0,0,0,0,0,0,0,0,0,0,0,0,0,0,0,0,0,0,0,0,0,0,0,0,0,0,0,0,0,0,0,0,0,0,0,0,0,0,0,0,0,0,0,0,0,0,0,0,0,0,0,0,0,0,0,0,0,0,0,0,0,0,0,0,0,0,0,0,0,0,0,0,0,0,0,0,0,0,256,256,280,357,448,462,460,458,457,458,460,462,465,468,469,469,467,465,462,459,455,453,453,449,445,443,443,446,449,453,458,464,470,473,475,481,485,487,487,490,492,491,491,494,498,499,499,502,503,501,499,509,506,458,393,304,258,256,259,261,264,260,256,256,256,311,385,646,1150,1150,1154,901.0001,904.0001,907.0001,909.0001,914.0001,918.0001,920.0001,919.0001,919.0001,918.0001,919.0001,920.0001,921.0001,923.0001,924.0001,925.0001,926.0001,926.0001,925.0001,922.0001,921.0001,919.0001,919.0001,919.0001,922.0001,925.0001,925.0001,925.0001,925.0001,926.0001,925.0001,926.0001,929.0001,933.0001,934.0001,935.0001,937.0001,938.0001,939.0001,940.0001,943.0001,948.0001,947.0001,945.0001,944.0001,942.0001,942.0001,943.0001,946.0001,950.0001,950.0001,948.0001,948.0001,949.0001,950.0001,951.0001,949.0001,948.0001,951.0001,953.0001,955.0001,955.0001,954.0001,952.0001,951.0001,951.0001,948.0001,946.0001,948.0001,951.0001,958.0001,963.0001,963.0001,962.0001,963.0001,964.0001,964.0001,965.0001,968.0001,970.0001,970.0001,968.0001,967.0001,965.0001,963.0001,959.0001,956.0001,955.0001,957.0001,961.0001,966.0001,971.0001,971.0001,969.0001,969.0001,968.0001,968.0001,967.0001,964.0001,963.0001,965.0001,969.0001,968.0001,968.0001,969.0001,973.0001,975.0001,976.0001,976.0001,976.0001,975.0001,973.0001,969.0001,967.0001,969.0001,972.0001,975.0001,978.0001,978.0001,977.0001,976.0001,977.0001,978.0001,979.0001,978.0001,977.0001,979.0001,981.0001,980.0001,980.0001,983.0001,987.0001,988.0001,988.0001,986.0001,984.0001,985.0001,987.0001,988.0001,989.0001,990.0001,990.0001,985.0001,980.0001,981.0001,983.0001,986.0001,988.0001,983.0001,978.0001,977.0001,978.0001,980.0001,983.0001,986.0001,989.0001,990.0001,992.0001,993.0001,995.0001,1004,1011,1007,1000,994.0001,987.0001,987.0001,988.0001,988.0001,988.0001,989.0001,991.0001,989.0001,990.0001,990.0001,995.0001,998.0001,1002,1008,1009,1002,999.0001,997.0001,990.0001,991.0001,990.0001,991.0001,991.0001,985.0001,978.0001,977.0001,977.0001,973.0001,972.0001,981.0001,993.0001,997.0001,999.0001,994.0001,988.0001,992.0001,991.0001,990.0001,989.0001,987.0001,986.0001,985.0001,985.0001,988.0001,992.0001,993.0001,993.0001,995.0001,996.0001,998.0001,998.0001,993.0001,987.0001,986.0001,987.0001,990.0001,993.0001,993.0001,991.0001,985.0001,978.0001,978.0001,981.0001,984.0001,986.0001,988.0001,991.0001,993.0001,994.0001,992.0001,990.0001,987.0001,985.0001,984.0001,983.0001,981.0001,978.0001,975.0001,974.0001,974.0001,978.0001,982.0001,986.0001,986.0001,985.0001,988.0001,989.0001,986.0001,983.0001,981.0001,980.0001,982.0001,984.0001,979.0001,974.0001,975.0001,975.0001,972.0001,970.0001,971.0001,973.0001,976.0001,977.0001,978.0001,977.0001,976.0001,974.0001,975.0001,975.0001,975.0001,975.0001,975.0001,975.0001,974.0001,973.0001,970.0001,965.0001,966.0001,967.0001,965.0001,963.0001,966.0001,970.0001,969.0001,970.0001,974.0001,977.0001,971.0001,963.0001,960.0001,958.0001,955.0001,951.0001,952.0001,955.0001,957.0001,958.0001,956.0001,955.0001,955.0001,957.0001,959.0001,962.0001,962.0001,961.0001,962.0001,963.0001,960.0001,956.0001,948.0001,942.0001,945.0001,945.0001,945.0001,674,600,0,0,0,0,0,0,0,0,0,0,0,0,0,0,0,0,0,0,0,0,0,0,0,0,0,0,0,0,0,0,0,0,0,0,0,0,0,0,0,0,0,0,0,0,0,0,0,0,0,0,0,0,0,0,0,0,0,0,0,0,0,0,0,0,0,0,0,0,0,0,0,0,0,0,0,0,0,0,0,0,0,0,0,0,0,0,0,0,0,0,0,0,0,0,0,0,0,0,0,0,0,0,0,0,0,0,0,0,0,0,0,0,0,0,0,0,0,0,0,0
0,0,0,0,0,0,0,0,0,0,0,0,0,0,0,0,0,0,0,0,0,0,0,0,0,0,0,0,0,0,0,0,0,0,0,0,0,0,0,0,0,0,0,0,0,0,0,0,0,0,0,0,0,0,0,0,0,0,0,0,0,0,0,0,0,0,0,0,0,0,0,0,0,0,0,0,0,0,0,0,0,0,0,0,0,0,0,0,0,0,0,0,0,0,0,0,0,0,0,0,0,0,0,0,0,0,0,0,0,0,0,0,0,0,0,0,0,0,0,0,0,0,0,0,0,0,0,0,256,545,341,414,458,464,458,456,457,457,459,461,464,467,468,468,466,463,460,457,454,453,453,449,444,442,442,445,448,452,457,463,470,472,475,480,485,487,487,490,490,490,490,493,498,499,500,502,503,500,498,509,506,459,392,301,256,256,260,263,265,260,257,256,256,319,398,914.0001,1160,1417,1164,911.0001,914.0001,915.0001,917.0001,921.0001,926.0001,928.0001,931.0001,930.0001,929.0001,930.0001,930.0001,931.0001,932.0001,933.0001,934.0001,935.0001,938.0001,936.0001,935.0001,934.0001,933.0001,932.0001,931.0001,933.0001,936.0001,936.0001,936.0001,936.0001,936.0001,935.0001,936.0001,938.0001,943.0001,944.0001,945.0001,947.0001,949.0001,951.0001,953.0001,954.0001,955.0001,955.0001,952.0001,951.0001,949.0001,950.0001,951.0001,955.0001,957.0001,957.0001,956.0001,957.0001,957.0001,958.0001,959.0001,958.0001,957.0001,960.0001,963.0001,965.0001,965.0001,963.0001,961.0001,959.0001,958.0001,954.0001,952.0001,954.0001,959.0001,966.0001,972.0001,972.0001,973.0001,974.0001,975.0001,975.0001,976.0001,979.0001,982.0001,981.0001,979.0001,977.0001,975.0001,971.0001,966.0001,963.0001,961.0001,963.0001,966.0001,973.0001,978.0001,979.0001,978.0001,977.0001,977.0001,976.0001,975.0001,974.0001,972.0001,973.0001,974.0001,975.0001,976.0001,978.0001,982.0001,984.0001,986.0001,986.0001,986.0001,984.0001,982.0001,978.0001,976.0001,977.0001,980.0001,982.0001,984.0001,987.0001,989.0001,990.0001,992.0001,992.0001,992.0001,991.0001,991.0001,993.0001,995.0001,992.0001,990.0001,994.0001,999.0001,1001,1001,997.0001,994.0001,993.0001,994.0001,998.0001,1002,1004,1004,1000,995.0001,994.0001,995.0001,996.0001,997.0001,995.0001,993.0001,991.0001,991.0001,994.0001,997.0001,1000,1002,1003,1004,1008,1008,999.0001,993.0001,991.0001,997.0001,1001,1005,1004,1003,1001,999.0001,998.0001,998.0001,997.0001,995.0001,989.0001,989.0001,993.0001,997.0001,991.0001,989.0001,991.0001,993.0001,997.0001,1003,1000,1002,1004,1005,996.0001,987.0001,986.0001,985.0001,983.0001,983.0001,993.0001,1003,1001,993.0001,1001,1002,1003,1002,1000,998.0001,1000,1001,999.0001,996.0001,999.0001,1001,1002,1001,1002,1003,1005,1005,1001,997.0001,999.0001,1002,1005,1007,1004,999.0001,995.0001,991.0001,992.0001,995.0001,998.0001,1001,1003,1006,1007,1005,1002,998.0001,997.0001,996.0001,993.0001,990.0001,990.0001,989.0001,988.0001,988.0001,988.0001,990.0001,993.0001,995.0001,995.0001,997.0001,1001,1005,1004,1001,997.0001,993.0001,995.0001,997.0001,995.0001,992.0001,991.0001,989.0001,985.0001,982.0001,983.0001,985.0001,986.0001,988.0001,988.0001,987.0001,988.0001,988.0001,986.0001,984.0001,987.0001,990.0001,994.0001,994.0001,991.0001,986.0001,981.0001,977.0001,977.0001,977.0001,974.0001,973.0001,977.0001,982.0001,982.0001,981.0001,984.0001,985.0001,979.0001,973.0001,971.0001,969.0001,966.0001,962.0001,962.0001,963.0001,963.0001,963.0001,963.0001,963.0001,967.0001,970.0001,970.0001,970.0001,970.0001,969.0001,971.0001,971.0001,968.0001,965.0001,963.0001,965.0001,967.0001,965.0001,966.0001,953.0001,883.0001,526,256,0,0,2,1,0,0,0,0,0,0,0,0,0,0,0,0,0,0,0,0,0,0,0,0,0,0,0,0,0,0,0,0,0,0,0,0,0,0,0,0,0,0,0,0,0,0,0,0,0,0,0,0,0,0,0,0,0,0,0,0,0,0,0,0,0,0,0,0,0,0,0,0,0,0,0,0,0,0,0,0,0,0,0,0,0,0,0,0,0,0,0,0,0,0,0,0,0,0,0,0,0,0,0,0,0,0,0,0,0,0,0,0,0,0,0,0,0,0
0,0,0,0,0,0,0,0,0,0,0,0,0,0,0,0,0,0,0,0,0,0,0,0,0,0,0,0,0,0,0,0,0,0,0,0,0,0,0,0,0,0,0,0,0,0,0,0,0,0,0,0,0,0,0,0,0,0,0,0,0,0,0,0,0,0,0,0,0,0,0,0,0,0,0,0,0,0,0,0,0,0,0,0,0,0,0,0,0,0,0,0,0,0,0,0,0,0,0,0,0,0,0,0,0,0,0,0,0,0,0,0,0,0,0,0,0,0,0,0,1,0,0,0,0,0,0,0,256,329,422,447,453,457,457,456,457,457,459,461,464,465,466,466,464,461,458,456,453,452,451,448,443,442,442,445,448,453,458,464,470,472,475,480,485,487,487,490,491,490,491,493,498,499,500,500,500,499,499,510,506,457,392,296,256,256,261,265,266,262,258,256,256,316,400,921.0001,1171,1429,1176,922.0001,923.0001,925.0001,927.0001,931.0001,934.0001,936.0001,937.0001,936.0001,934.0001,935.0001,936.0001,937.0001,939.0001,939.0001,939.0001,942.0001,945.0001,945.0001,944.0001,944.0001,943.0001,942.0001,941.0001,942.0001,944.0001,944.0001,944.0001,944.0001,944.0001,944.0001,944.0001,946.0001,950.0001,951.0001,952.0001,955.0001,957.0001,959.0001,959.0001,960.0001,959.0001,957.0001,955.0001,954.0001,953.0001,954.0001,955.0001,958.0001,961.0001,962.0001,963.0001,965.0001,966.0001,967.0001,968.0001,969.0001,969.0001,971.0001,972.0001,974.0001,974.0001,972.0001,969.0001,967.0001,964.0001,962.0001,962.0001,965.0001,969.0001,973.0001,977.0001,979.0001,982.0001,983.0001,984.0001,985.0001,986.0001,988.0001,990.0001,989.0001,986.0001,985.0001,984.0001,980.0001,976.0001,973.0001,971.0001,971.0001,973.0001,977.0001,983.0001,986.0001,987.0001,984.0001,981.0001,980.0001,981.0001,982.0001,982.0001,980.0001,979.0001,982.0001,986.0001,989.0001,994.0001,996.0001,997.0001,997.0001,997.0001,996.0001,994.0001,990.0001,987.0001,990.0001,993.0001,992.0001,993.0001,1001,1010,1015,1019,1016,1012,1013,1015,1018,1020,1012,1005,1008,1014,1017,1018,1014,1009,1006,1006,1013,1021,1023,1023,1021,1017,1015,1013,1012,1012,1018,1023,1019,1015,1018,1023,1023,1023,1023,1023,1023,1023,978.0001,938.0001,939.0001,977.0001,1005,1023,1023,1022,1019,1015,1010,1007,1007,1003,987.0001,967.0001,962.0001,975.0001,955.0001,930.0001,951.0001,970.0001,991.0001,1009,1018,1019,1022,1022,1013,1003,998.0001,996.0001,998.0001,1000,1008,1010,992.0001,978.0001,996.0001,1020,1019,1019,1012,1008,1018,1023,1023,1016,1013,1011,1011,1013,1014,1015,1016,1017,1014,1013,1019,1023,1023,1023,1018,1011,1013,1016,1017,1018,1019,1021,1022,1023,1022,1019,1013,1009,1011,1013,1008,1003,1005,1007,1011,1014,1015,1016,1013,1011,1012,1014,1018,1020,1023,1023,1012,1002,1003,1005,1012,1018,1013,1003,997.0001,993.0001,992.0001,991.0001,995.0001,998.0001,998.0001,998.0001,1004,1009,1000,991.0001,997.0001,1007,1017,1022,1014,1002,997.0001,993.0001,990.0001,987.0001,983.0001,981.0001,985.0001,991.0001,993.0001,994.0001,995.0001,994.0001,992.0001,988.0001,985.0001,983.0001,980.0001,978.0001,977.0001,976.0001,973.0001,970.0001,973.0001,978.0001,985.0001,990.0001,985.0001,978.0001,977.0001,975.0001,975.0001,974.0001,973.0001,973.0001,976.0001,979.0001,983.0001,983.0001,969.0001,947.0001,882.0001,595,15,0,0,3,1,0,0,0,0,0,0,0,0,0,0,0,0,0,0,0,0,0,0,0,0,0,0,0,0,0,0,0,0,0,0,0,0,0,0,0,0,0,0,0,0,0,0,0,0,0,0,0,0,0,0,0,0,0,0,0,0,0,0,0,0,0,0,0,0,0,0,0,0,0,0,0,0,0,0,0,0,0,0,0,0,0,0,0,0,0,0,0,0,0,0,0,0,0,0,0,0,0,0,0,0,0,0,0,0,0,0,0,0,0,0,0,0,0,0
0,0,0,0,0,0,0,0,0,0,0,0,0,0,0,0,0,0,0,0,0,0,0,0,0,0,0,0,0,0,0,0,0,0,0,0,0,0,0,0,0,0,0,0,0,0,0,0,0,0,0,0,0,0,0,0,0,0,0,0,0,0,0,0,0,0,0,0,0,0,0,0,0,0,0,0,0,0,0,0,0,0,0,0,0,0,0,0,0,0,0,0,0,0,0,0,0,0,0,0,0,0,0,0,0,0,0,0,0,0,0,0,0,0,0,0,0,0,0,0,1,0,0,0,0,0,0,1,279,363,457,463,450,451,454,455,457,458,459,460,462,463,464,463,461,458,455,452,450,449,447,444,441,441,442,445,450,455,460,465,470,472,475,480,485,487,487,490,491,490,491,493,498,499,500,500,500,500,500,508,505,474,423,323,259,256,262,264,268,262,258,256,256,324,665,931.0001,1184,1444,1191,936.0001,936.0001,937.0001,939.0001,942.0001,944.0001,946.0001,946.0001,945.0001,945.0001,945.0001,947.0001,948.0001,949.0001,949.0001,949.0001,952.0001,954.0001,954.0001,953.0001,953.0001,953.0001,952.0001,952.0001,952.0001,953.0001,953.0001,953.0001,953.0001,953.0001,953.0001,953.0001,955.0001,957.0001,958.0001,960.0001,963.0001,966.0001,970.0001,970.0001,968.0001,966.0001,963.0001,962.0001,961.0001,961.0001,962.0001,963.0001,965.0001,967.0001,970.0001,973.0001,976.0001,978.0001,977.0001,978.0001,980.0001,981.0001,982.0001,983.0001,984.0001,985.0001,985.0001,984.0001,981.0001,978.0001,979.0001,980.0001,983.0001,986.0001,987.0001,990.0001,991.0001,993.0001,996.0001,1000,1000,999.0001,1003,1005,1004,1003,1002,1001,999.0001,995.0001,992.0001,991.0001,990.0001,990.0001,993.0001,995.0001,996.0001,996.0001,994.0001,994.0001,992.0001,992.0001,991.0001,990.0001,988.0001,990.0001,993.0001,998.0001,1000,1002,1003,1003,1003,1003,1003,1002,1000,998.0001,1000,1003,1003,1001,995.0001,990.0001,992.0001,997.0001,1002,1004,1000,994.0001,994.0001,997.0001,1005,1011,1010,1003,992.0001,979.0001,968.0001,959.0001,954.0001,956.0001,976.0001,997.0001,1001,998.0001,999.0001,997.0001,987.0001,976.0001,964.0001,960.0001,981.0001,1004,1002,995.0001,998.0001,1002,1002,1001,999.0001,998.0001,999.0001,986.0001,924.0001,844.0001,853.0001,888.0001,962.0001,1006,1009,998.0001,989.0001,978.0001,965.0001,955.0001,955.0001,955.0001,930.0001,910.0001,883.0001,916.0001,865.0001,848.0001,858.0001,885.0001,935.0001,956.0001,967.0001,981.0001,991.0001,998.0001,998.0001,996.0001,999.0001,1002,1002,997.0001,979.0001,957.0001,934.0001,892.0001,940.0001,981.0001,996.0001,1007,1010,1012,1011,1005,992.0001,978.0001,965.0001,956.0001,955.0001,958.0001,959.0001,960.0001,960.0001,962.0001,966.0001,974.0001,988.0001,1001,1004,998.0001,974.0001,956.0001,974.0001,995.0001,998.0001,995.0001,995.0001,997.0001,998.0001,997.0001,989.0001,977.0001,964.0001,955.0001,965.0001,975.0001,964.0001,952.0001,960.0001,972.0001,985.0001,996.0001,998.0001,996.0001,983.0001,974.0001,988.0001,1006,1011,1011,1005,1000,1004,1009,1012,1010,1003,996.0001,995.0001,996.0001,999.0001,1002,1004,1006,1005,1006,1006,1004,994.0001,986.0001,991.0001,1000,1001,1001,1003,1001,990.0001,982.0001,992.0001,1003,1004,1000,998.0001,996.0001,995.0001,998.0001,1003,1008,1005,1001,999.0001,999.0001,997.0001,995.0001,993.0001,991.0001,995.0001,995.0001,991.0001,984.0001,986.0001,989.0001,990.0001,990.0001,992.0001,993.0001,991.0001,986.0001,983.0001,981.0001,980.0001,981.0001,983.0001,987.0001,991.0001,991.0001,982.0001,962.0001,686,653,60,0,0,1,0,0,0,0,0,0,0,0,0,0,0,0,0,0,0,0,0,0,0,0,0,0,0,0,0,0,0,0,0,0,0,0,0,0,0,0,0,0,0,0,0,0,0,0,0,0,0,0,0,0,0,0,0,0,0,0,0,0,0,0,0,0,0,0,0,0,0,0,0,0,0,0,0,0,0,0,0,0,0,0,0,0,0,0,0,0,0,0,0,0,0,0,0,0,0,0,0,0,0,0,0,0,0,0,0,0,0,0,0,0,0,0,0,0,0
0,0,0,0,0,0,0,0,0,0,0,0,0,0,0,0,0,0,0,0,0,0,0,0,0,0,0,0,0,0,0,0,0,0,0,0,0,0,0,0,0,0,0,0,0,0,0,0,0,0,0,0,0,0,0,0,0,0,0,0,0,0,0,0,0,0,0,0,0,0,0,0,0,0,0,0,0,0,0,0,0,0,0,0,0,0,0,0,0,0,0,0,0,0,0,0,0,0,0,0,0,0,0,0,0,0,0,0,0,0,0,0,0,0,0,0,0,0,0,0,0,0,0,0,0,0,0,15,318,399,449,456,450,450,451,453,457,458,459,459,460,461,462,461,458,456,451,448,446,444,444,441,439,439,441,445,451,457,462,466,470,472,475,480,485,487,487,490,491,490,491,493,498,499,500,501,501,501,501,505,504,501,476,400,295,260,260,262,268,260,256,256,269,337,674,942.0001,1193,1454,1202,946.0001,945.0001,945.0001,946.0001,948.0001,951.0001,952.0001,953.0001,952.0001,952.0001,953.0001,954.0001,955.0001,956.0001,957.0001,958.0001,959.0001,959.0001,960.0001,961.0001,960.0001,961.0001,962.0001,963.0001,963.0001,963.0001,963.0001,963.0001,963.0001,963.0001,963.0001,963.0001,963.0001,964.0001,965.0001,967.0001,972.0001,976.0001,979.0001,981.0001,977.0001,971.0001,968.0001,967.0001,967.0001,968.0001,970.0001,972.0001,973.0001,974.0001,978.0001,981.0001,984.0001,986.0001,984.0001,984.0001,986.0001,989.0001,991.0001,993.0001,993.0001,994.0001,997.0001,999.0001,1000,998.0001,1001,1005,1008,1007,1012,1008,1004,1001,1011,1021,1018,1017,1022,1023,1023,1023,1023,1023,1022,1018,1017,1016,1017,1018,1018,1017,1012,1008,1011,1014,1009,1005,1000,996.0001,998.0001,1005,1011,1015,1013,1012,1012,1011,1011,1011,1012,1012,1012,1012,1013,1014,1018,1012,974.0001,937.0001,930.0001,938.0001,961.0001,976.0001,960.0001,939.0001,932.0001,938.0001,978.0001,1014,1005,976.0001,938.0001,899.0001,846.0001,832.0001,823.0001,833.0001,871.0001,940.0001,941.0001,942.0001,946.0001,944.0001,925.0001,901.0001,841.0001,827.0001,867.0001,945.0001,948.0001,941.0001,943.0001,945.0001,944.0001,942.0001,944.0001,940.0001,926.0001,902.0001,825.0001,778.0001,776.0001,802.0001,863.0001,947.0001,954.0001,942.0001,924.0001,904.0001,852.0001,832.0001,827.0001,828.0001,816.0001,805.0001,807.0001,809.0001,797.0001,787.0001,793.0001,804.0001,814.0001,828.0001,849.0001,872.0001,922.0001,939.0001,955.0001,979.0001,994.0001,1006,1003,979.0001,918.0001,830.0001,813.0001,815.0001,840.0001,872.0001,942.0001,977.0001,1006,1018,989.0001,951.0001,922.0001,901.0001,846.0001,827.0001,825.0001,829.0001,830.0001,830.0001,829.0001,832.0001,846.0001,865.0001,921.0001,943.0001,948.0001,940.0001,889.0001,823.0001,868.0001,941.0001,947.0001,941.0001,940.0001,940.0001,942.0001,940.0001,921.0001,899.0001,844.0001,826.0001,847.0001,872.0001,879.0001,826.0001,845.0001,872.0001,925.0001,946.0001,951.0001,946.0001,917.0001,869.0001,936.0001,983.0001,995.0001,989.0001,961.0001,943.0001,977.0001,1016,1023,1016,974.0001,938.0001,951.0001,980.0001,996.0001,1015,1023,1023,1017,1012,1017,1012,967.0001,932.0001,971.0001,1010,1002,982.0001,959.0001,943.0001,936.0001,912.0001,975.0001,1013,1023,1023,1023,1018,1011,1006,1015,1023,1020,1013,1009,1009,1009,1009,1008,1006,1015,1020,1014,1004,1004,1001,984.0001,972.0001,993.0001,1014,1009,997.0001,992.0001,987.0001,984.0001,982.0001,984.0001,987.0001,988.0001,990.0001,991.0001,989.0001,731,710,125,22,0,0,0,0,0,0,0,0,0,0,0,0,0,0,0,0,0,0,0,0,0,0,0,0,0,0,0,0,0,0,0,0,0,0,0,0,0,0,0,0,0,0,0,0,0,0,0,0,0,0,0,0,0,0,0,0,0,0,0,0,0,0,0,0,0,0,0,0,0,0,0,0,0,0,0,0,0,0,0,0,0,0,0,0,0,0,0,0,0,0,0,0,0,0,0,0,0,0,0,0,0,0,0,0,0,0,0,0,0,0,0,0,0,0,0,0,0
0,0,0,0,0,0,0,0,0,0,0,0,0,0,0,0,0,0,0,0,0,0,0,0,0,0,0,0,0,0,0,0,0,0,0,0,0,0,0,0,0,0,0,0,0,0,0,0,0,0,0,0,0,0,0,0,0,0,0,0,0,0,0,0,0,0,0,0,0,0,0,0,0,0,0,0,0,0,0,0,0,0,0,0,0,0,0,0,0,0,0,0,0,0,0,0,0,0,0,0,0,0,0,0,0,0,0,0,0,0,0,0,0,0,0,0,0,0,0,0,0,0,0,0,0,0,0,46,363,418,448,451,449,449,450,453,456,457,458,458,458,459,459,457,454,451,448,445,441,441,441,439,438,438,440,446,452,458,464,468,470,472,475,480,485,487,487,490,491,490,491,493,498,499,500,501,502,502,502,503,504,511,507,440,364,288,258,258,266,257,256,272,311,638,684,951.0001,1203,1465,1212,956.0001,955.0001,954.0001,954.0001,956.0001,958.0001,959.0001,961.0001,961.0001,962.0001,962.0001,963.0001,964.0001,966.0001,967.0001,967.0001,967.0001,966.0001,967.0001,968.0001,969.0001,969.0001,970.0001,971.0001,971.0001,972.0001,972.0001,972.0001,973.0001,973.0001,973.0001,973.0001,972.0001,972.0001,974.0001,976.0001,981.0001,987.0001,990.0001,991.0001,987.0001,980.0001,978.0001,977.0001,978.0001,980.0001,983.0001,985.0001,986.0001,987.0001,991.0001,995.0001,998.0001,998.0001,996.0001,994.0001,998.0001,1002,1002,1001,1002,1004,1007,1008,1002,994.0001,991.0001,991.0001,986.0001,991.0001,996.0001,1001,1006,1008,1003,1000,989.0001,978.0001,990.0001,1005,1002,1002,1002,1002,1000,998.0001,997.0001,997.0001,996.0001,996.0001,998.0001,995.0001,974.0001,956.0001,963.0001,977.0001,990.0001,996.0001,1003,999.0001,999.0001,1001,992.0001,977.0001,968.0001,959.0001,957.0001,957.0001,956.0001,957.0001,958.0001,959.0001,961.0001,963.0001,963.0001,963.0001,968.0001,963.0001,918.0001,845.0001,840.0001,843.0001,870.0001,888.0001,899.0001,848.0001,839.0001,846.0001,892.0001,960.0001,949.0001,915.0001,848.0001,808.0001,785.0001,771.0001,769.0001,771.0001,813.0001,848.0001,853.0001,845.0001,850.0001,849.0001,833.0001,809.0001,784.0001,772.0001,812.0001,852.0001,856.0001,852.0001,854.0001,856.0001,854.0001,851.0001,852.0001,850.0001,836.0001,814.0001,781.0001,768.0001,768.0001,768.0001,807.0001,853.0001,859.0001,851.0001,836.0001,814.0001,797.0001,777.0001,776.0001,772.0001,770.0001,768.0001,768.0001,768.0001,768.0001,768.0001,768.0001,768.0001,768.0001,770.0001,788.0001,813.0001,836.0001,850.0001,869.0001,889.0001,941.0001,958.0001,949.0001,923.0001,832.0001,771.0001,768.0001,771.0001,787.0001,814.0001,851.0001,888.0001,947.0001,962.0001,927.0001,849.0001,827.0001,811.0001,784.0001,770.0001,768.0001,770.0001,771.0001,771.0001,770.0001,773.0001,788.0001,809.0001,834.0001,848.0001,854.0001,846.0001,802.0001,770.0001,807.0001,850.0001,856.0001,851.0001,850.0001,850.0001,852.0001,850.0001,833.0001,808.0001,782.0001,769.0001,789.0001,811.0001,790.0001,771.0001,789.0001,816.0001,842.0001,857.0001,860.0001,853.0001,827.0001,810.0001,849.0001,890.0001,928.0001,921.0001,864.0001,847.0001,889.0001,964.0001,975.0001,964.0001,913.0001,841.0001,863.0001,891.0001,934.0001,963.0001,989.0001,1003,982.0001,957.0001,961.0001,957.0001,907.0001,838.0001,887.0001,961.0001,947.0001,892.0001,895.0001,847.0001,847.0001,856.0001,920.0001,962.0001,985.0001,1000,1000,999.0001,1004,1011,1006,1001,977.0001,962.0001,956.0001,958.0001,959.0001,961.0001,957.0001,959.0001,981.0001,1001,990.0001,973.0001,962.0001,950.0001,929.0001,889.0001,944.0001,977.0001,998.0001,1010,1005,997.0001,996.0001,996.0001,994.0001,994.0001,995.0001,997.0001,1004,1010,762,750,433,107,32,0,0,0,0,0,0,0,0,0,0,0,0,0,0,0,0,0,0,0,0,0,0,0,0,0,0,0,0,0,0,0,0,0,0,0,0,0,0,0,0,0,0,0,0,0,0,0,0,0,0,0,0,0,0,0,0,0,0,0,0,0,0,0,0,0,0,0,0,0,0,0,0,0,0,0,0,0,0,0,0,0,0,0,0,0,0,0,0,0,0,0,0,0,0,0,0,0,0,0,0,0,0,0,0,0,0,0,0,0,0,0,0,0,0,0,0
0,0,0,0,0,0,0,0,0,0,0,0,0,0,0,0,0,0,0,0,0,0,0,0,0,0,0,0,0,0,0,0,0,0,0,0,0,0,0,0,0,0,0,0,0,0,0,0,0,0,0,0,0,0,0,0,0,0,0,0,0,0,0,0,0,0,0,0,0,0,0,0,0,0,0,0,0,0,0,0,0,0,0,0,0,0,0,0,0,0,0,0,0,0,0,0,0,0,0,0,0,0,0,0,0,0,0,0,0,0,0,0,0,0,0,0,0,0,0,0,0,0,0,0,0,0,10,81,425,440,444,447,446,449,451,455,458,459,458,459,459,459,459,457,453,450,447,442,439,439,439,438,438,438,440,446,451,458,464,467,470,472,475,480,485,487,487,490,491,490,491,494,498,499,500,500,500,501,502,503,504,511,506,459,399,304,256,256,263,256,256,297,360,667,689,955.0001,1212,1471,1216,961.0001,962.0001,961.0001,962.0001,963.0001,964.0001,965.0001,966.0001,967.0001,968.0001,969.0001,969.0001,971.0001,973.0001,974.0001,974.0001,972.0001,970.0001,971.0001,972.0001,974.0001,975.0001,975.0001,975.0001,976.0001,977.0001,978.0001,978.0001,978.0001,979.0001,979.0001,978.0001,978.0001,978.0001,979.0001,982.0001,988.0001,995.0001,998.0001,999.0001,997.0001,992.0001,990.0001,990.0001,993.0001,997.0001,1001,1005,1006,1007,1011,1016,1017,1016,1009,1005,1011,1019,1016,1013,1013,1014,1016,1013,997.0001,974.0001,955.0001,938.0001,934.0001,940.0001,958.0001,981.0001,1008,1019,985.0001,941.0001,916.0001,900.0001,888.0001,942.0001,944.0001,945.0001,945.0001,945.0001,944.0001,943.0001,943.0001,942.0001,941.0001,938.0001,945.0001,941.0001,896.0001,826.0001,841.0001,871.0001,936.0001,975.0001,998.0001,1013,1001,975.0001,938.0001,906.0001,847.0001,829.0001,823.0001,825.0001,825.0001,826.0001,827.0001,830.0001,833.0001,835.0001,837.0001,837.0001,837.0001,833.0001,814.0001,793.0001,785.0001,782.0001,803.0001,816.0001,802.0001,789.0001,785.0001,791.0001,816.0001,840.0001,826.0001,810.0001,795.0001,782.0001,778.0001,785.0001,784.0001,782.0001,785.0001,790.0001,787.0001,785.0001,787.0001,787.0001,787.0001,790.0001,784.0001,784.0001,789.0001,792.0001,793.0001,796.0001,800.0001,803.0001,799.0001,792.0001,795.0001,795.0001,793.0001,790.0001,783.0001,775.0001,771.0001,772.0001,782.0001,795.0001,797.0001,796.0001,793.0001,792.0001,788.0001,788.0001,785.0001,782.0001,783.0001,783.0001,778.0001,776.0001,777.0001,781.0001,783.0001,783.0001,777.0001,773.0001,780.0001,789.0001,795.0001,798.0001,804.0001,815.0001,827.0001,837.0001,829.0001,814.0001,792.0001,774.0001,774.0001,782.0001,788.0001,789.0001,801.0001,808.0001,827.0001,835.0001,814.0001,788.0001,785.0001,784.0001,782.0001,778.0001,777.0001,778.0001,780.0001,781.0001,782.0001,784.0001,785.0001,789.0001,791.0001,790.0001,789.0001,790.0001,784.0001,777.0001,784.0001,793.0001,796.0001,795.0001,795.0001,796.0001,796.0001,796.0001,790.0001,784.0001,778.0001,775.0001,784.0001,789.0001,782.0001,777.0001,782.0001,790.0001,797.0001,800.0001,798.0001,799.0001,790.0001,784.0001,797.0001,808.0001,814.0001,812.0001,796.0001,791.0001,814.0001,838.0001,845.0001,835.0001,810.0001,785.0001,795.0001,812.0001,817.0001,832.0001,880.0001,942.0001,905.0001,825.0001,821.0001,826.0001,801.0001,783.0001,805.0001,829.0001,827.0001,814.0001,798.0001,788.0001,790.0001,802.0001,814.0001,835.0001,878.0001,947.0001,939.0001,940.0001,984.0001,1017,989.0001,941.0001,893.0001,829.0001,823.0001,829.0001,832.0001,834.0001,827.0001,830.0001,876.0001,947.0001,927.0001,896.0001,848.0001,827.0001,811.0001,810.0001,831.0001,869.0001,962.0001,1019,1023,1014,1018,1019,1016,1013,1013,1014,1019,1023,767,765,486,180,72,0,0,0,0,0,0,0,0,0,0,0,0,0,0,0,0,0,0,0,0,0,0,0,0,0,0,0,0,0,0,0,0,0,0,0,0,0,0,0,0,0,0,0,0,0,0,0,0,0,0,0,0,0,0,0,0,0,0,0,0,0,0,0,0,0,0,0,0,0,0,0,0,0,0,0,0,0,0,0,0,0,0,0,0,0,0,0,0,0,0,0,0,0,0,0,0,0,0,0,0,0,0,0,0,0,0,0,0,0,0,0,0,0,0,0,0
0,0,0,0,0,0,0,0,0,0,0,0,0,0,0,0,0,0,0,0,0,0,0,0,0,0,0,0,0,0,0,0,0,0,0,0,0,0,0,0,0,0,0,0,0,0,0,0,0,0,0,0,0,0,0,0,0,0,0,0,0,0,0,0,0,0,0,0,0,0,0,0,0,0,0,0,0,0,0,0,0,0,0,0,0,0,0,0,0,0,0,0,0,0,0,0,0,0,0,0,0,0,0,0,0,0,0,0,0,0,0,0,0,0,0,0,0,0,0,0,0,0,0,0,0,8,55,133,446,449,442,441,446,448,451,454,456,456,455,455,455,455,454,452,449,446,444,440,438,438,439,439,438,440,443,448,454,459,465,468,471,473,476,481,485,487,487,490,490,490,490,493,497,499,499,500,500,501,501,503,504,510,506,476,429,324,256,256,262,256,256,329,680,697,698,960.0001,1219,1220,1221,968.0001,970.0001,970.0001,970.0001,971.0001,973.0001,974.0001,975.0001,977.0001,979.0001,978.0001,978.0001,979.0001,980.0001,980.0001,980.0001,978.0001,977.0001,977.0001,978.0001,981.0001,984.0001,985.0001,986.0001,989.0001,991.0001,991.0001,988.0001,988.0001,986.0001,987.0001,988.0001,988.0001,990.0001,990.0001,993.0001,996.0001,1000,1003,1005,1004,1002,1002,1000,997.0001,993.0001,989.0001,987.0001,987.0001,989.0001,992.0001,995.0001,995.0001,997.0001,1004,1011,1014,1008,982.0001,957.0001,972.0001,988.0001,976.0001,955.0001,937.0001,917.0001,866.0001,847.0001,843.0001,848.0001,868.0001,891.0001,949.0001,962.0001,922.0001,847.0001,815.0001,809.0001,823.0001,842.0001,847.0001,847.0001,849.0001,848.0001,848.0001,848.0001,849.0001,850.0001,848.0001,845.0001,852.0001,849.0001,807.0001,770.0001,778.0001,811.0001,847.0001,890.0001,946.0001,958.0001,946.0001,919.0001,861.0001,816.0001,789.0001,773.0001,770.0001,770.0001,770.0001,770.0001,771.0001,772.0001,775.0001,778.0001,780.0001,781.0001,780.0001,778.0001,773.0001,771.0001,768.0001,768.0001,770.0001,777.0001,771.0001,768.0001,768.0001,770.0001,776.0001,783.0001,778.0001,772.0001,772.0001,774.0001,784.0001,791.0001,790.0001,791.0001,778.0001,770.0001,768.0001,768.0001,768.0001,768.0001,771.0001,780.0001,790.0001,795.0001,782.0001,770.0001,769.0001,771.0001,776.0001,781.0001,776.0001,772.0001,771.0001,777.0001,777.0001,783.0001,790.0001,793.0001,791.0001,785.0001,777.0001,771.0001,771.0001,772.0001,776.0001,782.0001,790.0001,793.0001,791.0001,789.0001,792.0001,795.0001,790.0001,787.0001,789.0001,793.0001,795.0001,795.0001,788.0001,781.0001,782.0001,783.0001,782.0001,780.0001,784.0001,782.0001,783.0001,789.0001,780.0001,772.0001,775.0001,782.0001,787.0001,787.0001,789.0001,784.0001,774.0001,774.0001,774.0001,780.0001,770.0001,768.0001,770.0001,783.0001,784.0001,787.0001,788.0001,788.0001,789.0001,791.0001,792.0001,791.0001,785.0001,780.0001,773.0001,769.0001,771.0001,771.0001,782.0001,790.0001,782.0001,771.0001,770.0001,771.0001,773.0001,774.0001,774.0001,773.0001,774.0001,775.0001,780.0001,782.0001,775.0001,780.0001,782.0001,780.0001,785.0001,781.0001,777.0001,771.0001,775.0001,769.0001,774.0001,774.0001,771.0001,769.0001,771.0001,772.0001,771.0001,768.0001,778.0001,785.0001,787.0001,780.0001,771.0001,768.0001,768.0001,769.0001,768.0001,775.0001,819.0001,850.0001,816.0001,768.0001,768.0001,770.0001,768.0001,768.0001,768.0001,770.0001,769.0001,769.0001,768.0001,768.0001,768.0001,771.0001,770.0001,777.0001,819.0001,854.0001,851.0001,849.0001,896.0001,963.0001,924.0001,844.0001,803.0001,770.0001,769.0001,772.0001,773.0001,774.0001,769.0001,771.0001,816.0001,851.0001,839.0001,809.0001,788.0001,770.0001,768.0001,768.0001,777.0001,807.0001,876.0001,965.0001,974.0001,966.0001,980.0001,996.0001,995.0001,989.0001,990.0001,992.0001,994.0001,996.0001,998.0001,739,737,461,127,24,2,0,0,0,0,0,0,0,0,0,0,0,0,0,0,0,0,0,0,0,0,0,0,0,0,0,0,0,0,0,0,0,0,0,0,0,0,0,0,0,0,0,0,0,0,0,0,0,0,0,0,0,0,0,0,0,0,0,0,0,0,0,0,0,0,0,0,0,0,0,0,0,0,0,0,0,0,0,0,0,0,0,0,0,0,0,0,0,0,0,0,0,0,0,0,0,0,0,0,0,0,0,0,0,0,0,0,0,0,0,0,0,0,0,0
0,0,0,0,0,0,0,0,0,0,0,0,0,0,0,0,0,0,0,0,0,0,0,0,0,0,0,0,0,0,0,0,0,0,0,0,0,0,0,0,0,0,0,0,0,0,0,0,0,0,0,0,0,0,0,0,0,0,0,0,0,0,0,0,0,0,0,0,0,0,0,0,0,0,0,0,0,0,0,0,0,0,0,0,0,0,0,0,0,0,0,0,0,0,0,0,0,0,0,0,0,0,0,0,0,0,0,0,0,0,0,0,0,0,0,0,0,0,0,0,0,0,0,0,0,41,98.00001,155,440,445,443,444,447,448,448,450,452,450,449,447,446,445,444,444,443,441,438,438,439,439,440,440,440,442,446,451,458,461,466,470,473,475,478,482,485,487,487,489,489,489,489,492,495,496,497,499,502,501,500,502,504,509,506,484,447,363,258,256,260,259,276,609,963.0001,971.0001,961.0001,963.0001,964.0001,968.0001,970.0001,975.0001,978.0001,979.0001,978.0001,979.0001,980.0001,981.0001,982.0001,986.0001,991.0001,990.0001,987.0001,986.0001,985.0001,984.0001,984.0001,986.0001,988.0001,987.0001,986.0001,988.0001,993.0001,996.0001,1000,1007,1012,1009,1009,996.0001,991.0001,993.0001,997.0001,1000,1003,1006,1014,1009,1010,1011,1012,1012,1011,1011,1008,992.0001,973.0001,954.0001,939.0001,939.0001,942.0001,942.0001,942.0001,940.0001,946.0001,986.0001,1021,1017,983.0001,911.0001,826.0001,867.0001,910.0001,903.0001,827.0001,810.0001,810.0001,800.0001,792.0001,790.0001,792.0001,799.0001,809.0001,823.0001,831.0001,809.0001,782.0001,777.0001,778.0001,778.0001,778.0001,783.0001,787.0001,787.0001,787.0001,787.0001,787.0001,790.0001,793.0001,793.0001,792.0001,795.0001,793.0001,782.0001,773.0001,777.0001,787.0001,798.0001,808.0001,821.0001,830.0001,826.0001,816.0001,803.0001,791.0001,788.0001,789.0001,787.0001,785.0001,784.0001,784.0001,783.0001,783.0001,785.0001,790.0001,791.0001,792.0001,792.0001,792.0001,792.0001,791.0001,788.0001,787.0001,789.0001,792.0001,791.0001,790.0001,790.0001,791.0001,793.0001,796.0001,795.0001,793.0001,793.0001,796.0001,799.0001,801.0001,798.0001,793.0001,791.0001,790.0001,790.0001,791.0001,790.0001,790.0001,795.0001,798.0001,801.0001,802.0001,799.0001,796.0001,796.0001,797.0001,800.0001,802.0001,801.0001,799.0001,801.0001,802.0001,802.0001,803.0001,803.0001,802.0001,801.0001,801.0001,799.0001,796.0001,796.0001,797.0001,798.0001,801.0001,801.0001,800.0001,798.0001,797.0001,797.0001,798.0001,797.0001,798.0001,798.0001,799.0001,800.0001,798.0001,797.0001,797.0001,800.0001,803.0001,807.0001,809.0001,809.0001,808.0001,805.0001,802.0001,795.0001,790.0001,791.0001,796.0001,798.0001,803.0001,803.0001,803.0001,800.0001,797.0001,798.0001,798.0001,797.0001,795.0001,796.0001,798.0001,798.0001,797.0001,800.0001,804.0001,805.0001,804.0001,802.0001,798.0001,795.0001,795.0001,793.0001,793.0001,798.0001,800.0001,802.0001,804.0001,801.0001,797.0001,796.0001,797.0001,801.0001,804.0001,803.0001,800.0001,797.0001,795.0001,795.0001,796.0001,796.0001,797.0001,796.0001,798.0001,798.0001,798.0001,796.0001,795.0001,793.0001,792.0001,791.0001,791.0001,790.0001,790.0001,793.0001,799.0001,801.0001,800.0001,799.0001,799.0001,795.0001,791.0001,788.0001,785.0001,787.0001,789.0001,789.0001,789.0001,798.0001,804.0001,792.0001,780.0001,781.0001,782.0001,783.0001,781.0001,780.0001,780.0001,778.0001,778.0001,778.0001,778.0001,781.0001,783.0001,784.0001,788.0001,796.0001,802.0001,800.0001,801.0001,819.0001,833.0001,815.0001,791.0001,781.0001,776.0001,780.0001,783.0001,782.0001,778.0001,776.0001,776.0001,787.0001,795.0001,790.0001,782.0001,777.0001,776.0001,777.0001,778.0001,774.0001,776.0001,809.0001,837.0001,834.0001,833.0001,873.0001,938.0001,942.0001,936.0001,938.0001,940.0001,941.0001,941.0001,941.0001,940.0001,942.0001,681,655,109,44,0,0,0,0,0,0,0,0,0,0,0,0,0,0,0,0,0,0,0,0,0,0,0,0,0,0,0,0,0,0,0,0,0,0,0,0,0,0,0,0,0,0,0,0,0,0,0,0,0,0,0,0,0,0,0,0,0,0,0,0,0,0,0,0,0,0,0,0,0,0,0,0,0,0,0,0,0,0,0,0,0,0,0,0,0,0,0,0,0,0,0,0,0,0,0,0,0,0,0,0,0,0,0,0,0,0,0,0,0,0,0,0,0,0
0,0,0,0,0,0,0,0,0,0,0,0,0,0,0,0,0,0,0,0,0,0,0,0,0,0,0,0,0,0,0,0,0,0,0,0,0,0,0,0,0,0,0,0,0,0,0,0,0,0,0,0,0,0,0,0,0,0,0,0,0,0,0,0,0,0,0,0,0,0,0,0,0,0,0,0,0,0,0,0,0,0,0,0,0,0,0,0,0,0,0,0,0,0,0,0,0,0,0,0,0,0,0,0,0,0,0,0,0,0,0,0,0,0,0,0,0,0,0,0,0,0,0,0,2,68,152,177,438,442,442,444,447,448,447,448,447,446,444,442,440,439,438,438,438,436,434,435,437,438,440,440,440,443,448,453,459,462,466,470,474,477,480,483,485,487,487,489,488,488,488,491,494,496,496,499,502,500,500,502,504,510,506,481,440,331,260,256,259,284,319,668,982.0001,984.0001,971.0001,970.0001,972.0001,975.0001,979.0001,985.0001,989.0001,990.0001,989.0001,990.0001,991.0001,992.0001,993.0001,997.0001,1001,1000,997.0001,996.0001,995.0001,996.0001,997.0001,997.0001,997.0001,998.0001,999.0001,1000,1002,1006,1010,1008,1006,1009,1012,1008,1003,1006,1008,1012,1011,997.0001,980.0001,966.0001,959.0001,958.0001,960.0001,960.0001,961.0001,962.0001,958.0001,940.0001,916.0001,865.0001,846.0001,844.0001,848.0001,848.0001,849.0001,844.0001,852.0001,899.0001,967.0001,956.0001,889.0001,851.0001,768.0001,807.0001,855.0001,847.0001,770.0001,768.0001,769.0001,768.0001,768.0001,768.0001,768.0001,768.0001,768.0001,770.0001,771.0001,768.0001,768.0001,768.0001,768.0001,768.0001,768.0001,768.0001,768.0001,768.0001,768.0001,768.0001,768.0001,768.0001,770.0001,770.0001,770.0001,770.0001,770.0001,776.0001,782.0001,782.0001,778.0001,773.0001,769.0001,771.0001,775.0001,775.0001,776.0001,777.0001,781.0001,791.0001,799.0001,800.0001,797.0001,796.0001,795.0001,793.0001,792.0001,795.0001,797.0001,798.0001,799.0001,800.0001,802.0001,804.0001,807.0001,804.0001,801.0001,800.0001,802.0001,804.0001,807.0001,807.0001,805.0001,805.0001,805.0001,808.0001,809.0001,811.0001,812.0001,813.0001,813.0001,808.0001,803.0001,804.0001,808.0001,809.0001,810.0001,810.0001,811.0001,812.0001,813.0001,813.0001,812.0001,813.0001,814.0001,814.0001,814.0001,815.0001,818.0001,819.0001,819.0001,819.0001,819.0001,819.0001,819.0001,817.0001,814.0001,814.0001,815.0001,815.0001,814.0001,814.0001,814.0001,813.0001,812.0001,809.0001,807.0001,805.0001,805.0001,807.0001,809.0001,809.0001,809.0001,809.0001,809.0001,809.0001,809.0001,809.0001,809.0001,813.0001,819.0001,823.0001,826.0001,826.0001,823.0001,817.0001,811.0001,808.0001,805.0001,808.0001,810.0001,812.0001,815.0001,817.0001,817.0001,815.0001,812.0001,811.0001,811.0001,812.0001,813.0001,813.0001,812.0001,810.0001,809.0001,813.0001,817.0001,817.0001,816.0001,811.0001,807.0001,804.0001,805.0001,808.0001,812.0001,816.0001,820.0001,819.0001,818.0001,817.0001,816.0001,816.0001,816.0001,820.0001,823.0001,821.0001,816.0001,812.0001,809.0001,808.0001,808.0001,807.0001,808.0001,808.0001,808.0001,810.0001,811.0001,811.0001,810.0001,809.0001,808.0001,807.0001,805.0001,803.0001,804.0001,810.0001,815.0001,818.0001,818.0001,813.0001,808.0001,803.0001,801.0001,802.0001,803.0001,803.0001,802.0001,802.0001,800.0001,791.0001,785.0001,788.0001,792.0001,793.0001,793.0001,796.0001,796.0001,791.0001,785.0001,784.0001,785.0001,789.0001,792.0001,792.0001,791.0001,792.0001,792.0001,787.0001,780.0001,780.0001,781.0001,778.0001,776.0001,771.0001,769.0001,774.0001,785.0001,790.0001,790.0001,787.0001,782.0001,782.0001,781.0001,773.0001,769.0001,769.0001,771.0001,775.0001,781.0001,785.0001,788.0001,776.0001,768.0001,771.0001,775.0001,771.0001,773.0001,812.0001,850.0001,855.0001,849.0001,851.0001,853.0001,854.0001,853.0001,848.0001,846.0001,851.0001,856.0001,860.0001,627,298,2,0,0,0,0,0,0,0,0,0,0,0,0,0,0,0,0,0,0,0,0,0,0,0,0,0,0,0,0,0,0,0,0,0,0,0,0,0,0,0,0,0,0,0,0,0,0,0,0,0,0,0,0,0,0,0,0,0,0,0,0,0,0,0,0,0,0,0,0,0,0,0,0,0,0,0,0,0,0,0,0,0,0,0,0,0,0,0,0,0,0,0,0,0,0,0,0,0,0,0,0,0,0,0,0,0,0,0,0,0,0,0,0,0
0,0,0,0,0,0,0,0,0,0,0,0,0,0,0,0,0,0,0,0,0,0,0,0,0,0,0,0,0,0,0,0,0,0,0,0,0,0,0,0,0,0,0,0,0,0,0,0,0,0,0,0,0,0,0,0,0,0,0,0,0,0,0,0,0,0,0,0,0,0,0,0,0,0,0,0,0,0,0,0,0,0,0,0,0,0,0,0,0,0,0,0,0,0,0,0,0,0,0,0,0,0,0,0,0,0,0,0,0,0,0,0,0,0,0,0,0,0,0,0,0,0,0,2,21,90,170,185,439,440,441,443,446,447,448,447,444,443,442,440,438,435,435,434,434,433,432,432,434,436,437,439,440,443,448,453,459,462,466,470,474,476,479,483,485,487,487,489,488,488,488,491,495,496,497,498,500,500,500,503,505,511,506,468,418,318,258,256,259,313,631,697,983.0001,987.0001,982.0001,981.0001,982.0001,985.0001,990.0001,996.0001,1000,1001,1001,1002,1003,1003,1004,1006,1009,1007,1006,1007,1010,1015,1019,1013,1008,1015,1021,1020,1016,1018,1016,996.0001,982.0001,998.0001,1019,1023,1023,1023,1022,1023,1019,962.0001,901.0001,843.0001,828.0001,825.0001,828.0001,828.0001,829.0001,831.0001,830.0001,821.0001,812.0001,796.0001,785.0001,788.0001,791.0001,793.0001,793.0001,787.0001,787.0001,814.0001,838.0001,833.0001,810.0001,787.0001,772.0001,790.0001,808.0001,792.0001,775.0001,778.0001,785.0001,784.0001,782.0001,782.0001,785.0001,787.0001,788.0001,787.0001,785.0001,782.0001,778.0001,778.0001,781.0001,783.0001,785.0001,785.0001,784.0001,784.0001,784.0001,782.0001,780.0001,784.0001,789.0001,792.0001,795.0001,795.0001,795.0001,797.0001,799.0001,800.0001,799.0001,791.0001,784.0001,788.0001,791.0001,791.0001,792.0001,795.0001,798.0001,804.0001,809.0001,809.0001,807.0001,805.0001,804.0001,804.0001,804.0001,805.0001,807.0001,808.0001,809.0001,810.0001,811.0001,812.0001,812.0001,809.0001,805.0001,807.0001,808.0001,809.0001,811.0001,811.0001,811.0001,815.0001,818.0001,818.0001,818.0001,820.0001,821.0001,821.0001,821.0001,817.0001,814.0001,815.0001,816.0001,817.0001,818.0001,819.0001,820.0001,821.0001,821.0001,821.0001,821.0001,821.0001,821.0001,821.0001,821.0001,823.0001,827.0001,828.0001,828.0001,828.0001,827.0001,828.0001,827.0001,826.0001,823.0001,823.0001,823.0001,825.0001,822.0001,823.0001,822.0001,819.0001,816.0001,814.0001,813.0001,814.0001,815.0001,817.0001,820.0001,819.0001,818.0001,818.0001,818.0001,818.0001,818.0001,818.0001,818.0001,821.0001,827.0001,831.0001,834.0001,833.0001,831.0001,827.0001,823.0001,821.0001,819.0001,820.0001,821.0001,825.0001,828.0001,829.0001,828.0001,826.0001,822.0001,822.0001,822.0001,822.0001,822.0001,822.0001,822.0001,820.0001,818.0001,821.0001,825.0001,823.0001,820.0001,816.0001,812.0001,811.0001,813.0001,816.0001,819.0001,825.0001,829.0001,830.0001,830.0001,829.0001,828.0001,827.0001,828.0001,830.0001,831.0001,828.0001,822.0001,818.0001,815.0001,815.0001,815.0001,814.0001,815.0001,815.0001,815.0001,818.0001,821.0001,820.0001,819.0001,818.0001,818.0001,817.0001,816.0001,814.0001,813.0001,817.0001,822.0001,825.0001,825.0001,821.0001,818.0001,816.0001,814.0001,813.0001,813.0001,813.0001,814.0001,813.0001,813.0001,813.0001,813.0001,812.0001,811.0001,809.0001,804.0001,803.0001,802.0001,798.0001,793.0001,793.0001,795.0001,797.0001,798.0001,799.0001,799.0001,798.0001,799.0001,803.0001,807.0001,808.0001,807.0001,802.0001,796.0001,792.0001,790.0001,795.0001,800.0001,801.0001,800.0001,797.0001,792.0001,791.0001,790.0001,788.0001,785.0001,785.0001,785.0001,788.0001,790.0001,792.0001,792.0001,789.0001,784.0001,782.0001,782.0001,781.0001,783.0001,791.0001,799.0001,800.0001,799.0001,800.0001,802.0001,803.0001,802.0001,792.0001,782.0001,784.0001,790.0001,802.0001,551,20,0,0,0,0,0,0,0,0,0,0,0,0,0,0,0,0,0,0,0,0,0,0,0,0,0,0,0,0,0,0,0,0,0,0,0,0,0,0,0,0,0,0,0,0,0,0,0,0,0,0,0,0,0,0,0,0,0,0,0,0,0,0,0,0,0,0,0,0,0,0,0,0,0,0,0,0,0,0,0,0,0,0,0,0,0,0,0,0,0,0,0,0,0,0,0,0,0,0,0,0,0,0,0,0,0,0,0,0,0,0,0,0,0,0
0,0,0,0,0,0,0,0,0,0,0,0,0,0,0,0,0,0,0,0,0,0,0,0,0,0,0,0,0,0,0,0,0,0,0,0,0,0,0,0,0,0,0,0,0,0,0,0,0,0,0,0,0,0,0,0,0,0,0,0,0,0,0,0,0,0,0,0,0,0,0,0,0,0,0,0,0,0,0,0,0,0,0,0,0,0,0,0,0,0,0,0,0,0,0,0,0,0,0,0,0,0,0,0,0,0,0,0,0,0,0,0,0,0,0,0,0,0,0,0,0,0,0,28,71,135,181,187,437,438,440,442,445,447,447,445,441,440,439,437,435,433,432,430,429,428,427,428,430,432,434,437,440,443,448,453,459,462,466,470,474,476,479,482,485,487,487,489,488,488,488,491,495,496,497,497,499,499,499,503,506,511,507,450,385,299,259,256,261,341,704,731,995.0001,999.0001,999.0001,996.0001,993.0001,995.0001,999.0001,1003,1005,1007,1008,1009,1010,1010,1010,1010,1011,1011,1010,1006,1002,1001,996.0001,973.0001,954.0001,967.0001,983.0001,974.0001,960.0001,960.0001,958.0001,935.0001,920.0001,907.0001,963.0001,987.0001,1002,996.0001,981.0001,977.0001,964.0001,899.0001,808.0001,784.0001,770.0001,770.0001,771.0001,772.0001,772.0001,774.0001,776.0001,775.0001,773.0001,770.0001,768.0001,768.0001,770.0001,771.0001,771.0001,768.0001,768.0001,772.0001,782.0001,775.0001,771.0001,773.0001,780.0001,782.0001,781.0001,780.0001,780.0001,789.0001,796.0001,796.0001,796.0001,797.0001,798.0001,799.0001,800.0001,798.0001,795.0001,795.0001,795.0001,795.0001,796.0001,800.0001,804.0001,804.0001,803.0001,803.0001,803.0001,800.0001,798.0001,801.0001,807.0001,809.0001,811.0001,812.0001,812.0001,813.0001,813.0001,813.0001,812.0001,807.0001,802.0001,802.0001,804.0001,803.0001,803.0001,807.0001,812.0001,816.0001,820.0001,819.0001,818.0001,816.0001,815.0001,815.0001,816.0001,816.0001,818.0001,819.0001,820.0001,821.0001,822.0001,823.0001,822.0001,819.0001,816.0001,817.0001,818.0001,820.0001,820.0001,820.0001,820.0001,825.0001,831.0001,831.0001,831.0001,831.0001,831.0001,831.0001,831.0001,828.0001,826.0001,826.0001,827.0001,828.0001,831.0001,832.0001,833.0001,832.0001,832.0001,832.0001,832.0001,832.0001,831.0001,830.0001,831.0001,833.0001,836.0001,836.0001,836.0001,837.0001,837.0001,837.0001,837.0001,836.0001,836.0001,836.0001,836.0001,836.0001,835.0001,835.0001,835.0001,830.0001,826.0001,823.0001,823.0001,825.0001,826.0001,830.0001,833.0001,832.0001,831.0001,831.0001,831.0001,831.0001,831.0001,830.0001,831.0001,833.0001,837.0001,840.0001,843.0001,843.0001,841.0001,839.0001,836.0001,835.0001,835.0001,835.0001,836.0001,838.0001,841.0001,841.0001,841.0001,838.0001,836.0001,835.0001,834.0001,834.0001,836.0001,836.0001,836.0001,834.0001,831.0001,832.0001,833.0001,832.0001,829.0001,825.0001,821.0001,821.0001,823.0001,826.0001,829.0001,833.0001,838.0001,840.0001,841.0001,841.0001,841.0001,841.0001,841.0001,842.0001,842.0001,839.0001,834.0001,829.0001,827.0001,826.0001,827.0001,827.0001,827.0001,826.0001,827.0001,829.0001,831.0001,831.0001,830.0001,830.0001,830.0001,830.0001,829.0001,826.0001,823.0001,828.0001,831.0001,833.0001,833.0001,832.0001,831.0001,829.0001,826.0001,825.0001,823.0001,825.0001,826.0001,827.0001,828.0001,831.0001,832.0001,831.0001,828.0001,822.0001,816.0001,813.0001,811.0001,808.0001,804.0001,805.0001,807.0001,808.0001,809.0001,810.0001,811.0001,809.0001,810.0001,816.0001,822.0001,823.0001,822.0001,816.0001,810.0001,809.0001,809.0001,811.0001,813.0001,812.0001,810.0001,807.0001,803.0001,802.0001,801.0001,801.0001,801.0001,800.0001,801.0001,801.0001,801.0001,801.0001,800.0001,799.0001,798.0001,795.0001,791.0001,792.0001,793.0001,788.0001,781.0001,782.0001,782.0001,783.0001,784.0001,784.0001,783.0001,775.0001,769.0001,769.0001,771.0001,525,532,265,2,0,0,0,0,0,0,0,0,0,0,0,0,0,0,0,0,0,0,0,0,0,0,0,0,0,0,0,0,0,0,0,0,0,0,0,0,0,0,0,0,0,0,0,0,0,0,0,0,0,0,0,0,0,0,0,0,0,0,0,0,0,0,0,0,0,0,0,0,0,0,0,0,0,0,0,0,0,0,0,0,0,0,0,0,0,0,0,0,0,0,0,0,0,0,0,0,0,0,0,0,0,0,0,0,0,0,0,0,0,0,0,0,0
0,0,0,0,0,0,0,0,0,0,0,0,0,0,0,0,0,0,0,0,0,0,0,0,0,0,0,0,0,0,0,0,0,0,0,0,0,0,0,0,0,0,0,0,0,0,0,0,0,0,0,0,0,0,0,0,0,0,0,0,0,0,0,0,0,0,0,0,0,0,0,0,0,0,0,0,0,0,0,0,0,0,0,0,0,0,0,0,0,0,0,0,0,0,0,0,0,0,0,0,0,0,0,0,0,0,0,0,0,0,0,0,0,0,0,0,0,0,0,0,0,0,0,62,142,164,172,176,434,436,438,440,443,445,445,442,439,438,437,435,432,431,430,428,426,425,424,426,429,431,433,436,440,443,448,453,459,462,466,470,474,476,479,482,485,487,487,489,488,488,488,491,495,496,497,497,498,498,498,502,506,511,509,436,357,290,272,256,259,357,735,758,1013,1023,1023,1017,1009,1010,1012,1014,1013,1014,1016,1017,1018,1019,1019,1017,1015,1017,1016,1000,979.0001,964.0001,944.0001,896.0001,823.0001,847.0001,871.0001,881.0001,822.0001,825.0001,829.0001,818.0001,810.0001,814.0001,832.0001,878.0001,944.0001,929.0001,899.0001,852.0001,833.0001,805.0001,782.0001,777.0001,780.0001,784.0001,788.0001,788.0001,787.0001,788.0001,789.0001,791.0001,792.0001,793.0001,793.0001,795.0001,797.0001,797.0001,797.0001,793.0001,790.0001,795.0001,796.0001,792.0001,789.0001,790.0001,792.0001,792.0001,793.0001,791.0001,790.0001,792.0001,798.0001,799.0001,800.0001,802.0001,805.0001,805.0001,805.0001,805.0001,805.0001,803.0001,802.0001,805.0001,808.0001,809.0001,810.0001,812.0001,814.0001,815.0001,814.0001,811.0001,808.0001,810.0001,814.0001,817.0001,820.0001,820.0001,820.0001,819.0001,819.0001,818.0001,817.0001,816.0001,815.0001,814.0001,814.0001,812.0001,813.0001,817.0001,822.0001,828.0001,831.0001,831.0001,829.0001,828.0001,827.0001,827.0001,827.0001,828.0001,828.0001,828.0001,828.0001,830.0001,832.0001,832.0001,832.0001,829.0001,827.0001,828.0001,829.0001,830.0001,832.0001,832.0001,832.0001,835.0001,839.0001,839.0001,839.0001,838.0001,838.0001,838.0001,838.0001,837.0001,836.0001,836.0001,837.0001,838.0001,839.0001,840.0001,841.0001,839.0001,838.0001,838.0001,838.0001,838.0001,838.0001,837.0001,838.0001,840.0001,843.0001,843.0001,843.0001,843.0001,843.0001,843.0001,843.0001,843.0001,844.0001,844.0001,844.0001,844.0001,844.0001,844.0001,844.0001,840.0001,834.0001,832.0001,832.0001,833.0001,834.0001,838.0001,841.0001,840.0001,839.0001,839.0001,839.0001,839.0001,839.0001,838.0001,839.0001,842.0001,846.0001,849.0001,850.0001,851.0001,851.0001,849.0001,848.0001,847.0001,845.0001,845.0001,845.0001,847.0001,848.0001,848.0001,848.0001,846.0001,844.0001,844.0001,844.0001,844.0001,843.0001,843.0001,843.0001,842.0001,843.0001,843.0001,842.0001,840.0001,836.0001,833.0001,831.0001,832.0001,834.0001,834.0001,835.0001,839.0001,842.0001,844.0001,846.0001,848.0001,850.0001,850.0001,851.0001,853.0001,852.0001,849.0001,844.0001,841.0001,838.0001,838.0001,838.0001,837.0001,837.0001,837.0001,837.0001,837.0001,838.0001,837.0001,837.0001,838.0001,839.0001,839.0001,838.0001,835.0001,833.0001,836.0001,839.0001,840.0001,841.0001,841.0001,840.0001,837.0001,834.0001,832.0001,831.0001,832.0001,834.0001,838.0001,841.0001,842.0001,842.0001,840.0001,836.0001,831.0001,823.0001,821.0001,819.0001,817.0001,817.0001,817.0001,819.0001,820.0001,821.0001,821.0001,821.0001,820.0001,821.0001,823.0001,827.0001,827.0001,827.0001,823.0001,821.0001,821.0001,820.0001,820.0001,820.0001,819.0001,817.0001,815.0001,812.0001,811.0001,810.0001,811.0001,811.0001,812.0001,811.0001,811.0001,810.0001,809.0001,805.0001,805.0001,804.0001,804.0001,804.0001,802.0001,801.0001,802.0001,805.0001,804.0001,803.0001,803.0001,804.0001,803.0001,802.0001,801.0001,801.0001,801.0001,801.0001,544,539,269,4,1,0,0,0,0,0,0,0,0,0,0,0,0,0,0,0,0,0,0,0,0,0,0,0,0,0,0,0,0,0,0,0,0,0,0,0,0,0,0,0,0,0,0,0,0,0,0,0,0,0,0,0,0,0,0,0,0,0,0,0,0,0,0,0,0,0,0,0,0,0,0,0,0,0,0,0,0,0,0,0,0,0,0,0,0,0,0,0,0,0,0,0,0,0,0,0,0,0,0,0,0,0,0,0,0,0,0,0,0,0,0,0,0
0,0,0,0,0,0,0,0,0,0,0,0,0,0,0,0,0,0,0,0,0,0,0,0,0,0,0,0,0,0,0,0,0,0,0,0,0,0,0,0,0,0,0,0,0,0,0,0,0,0,0,0,0,0,0,0,0,0,0,0,0,0,0,0,0,0,0,0,0,0,0,0,0,0,0,0,0,0,0,0,0,0,0,0,0,0,0,0,0,0,0,0,0,0,0,0,0,0,0,0,0,0,0,0,0,0,0,0,0,0,0,0,0,0,0,0,0,0,0,0,0,0,13,92,171,177,168,171,433,435,437,439,442,444,444,441,439,437,437,435,431,430,429,427,425,423,423,426,429,432,434,436,440,443,448,453,459,462,466,470,474,476,479,482,485,487,487,489,489,488,489,492,495,496,497,496,497,497,498,502,506,511,511,418,291,270,272,259,275,630,758,766,1004,1005,1001,976.0001,958.0001,957.0001,961.0001,960.0001,959.0001,959.0001,960.0001,961.0001,962.0001,964.0001,964.0001,961.0001,958.0001,962.0001,960.0001,943.0001,891.0001,901.0001,858.0001,800.0001,769.0001,787.0001,811.0001,789.0001,768.0001,768.0001,770.0001,770.0001,769.0001,768.0001,771.0001,815.0001,850.0001,838.0001,819.0001,789.0001,772.0001,770.0001,771.0001,778.0001,787.0001,792.0001,796.0001,796.0001,795.0001,796.0001,798.0001,801.0001,805.0001,808.0001,810.0001,811.0001,812.0001,813.0001,813.0001,813.0001,811.0001,809.0001,807.0001,804.0001,804.0001,804.0001,805.0001,807.0001,804.0001,802.0001,801.0001,802.0001,805.0001,809.0001,812.0001,813.0001,817.0001,817.0001,817.0001,817.0001,816.0001,816.0001,816.0001,819.0001,822.0001,822.0001,822.0001,826.0001,829.0001,830.0001,829.0001,825.0001,820.0001,822.0001,827.0001,829.0001,830.0001,831.0001,830.0001,829.0001,827.0001,826.0001,825.0001,828.0001,832.0001,832.0001,830.0001,827.0001,823.0001,828.0001,833.0001,838.0001,842.0001,842.0001,840.0001,839.0001,838.0001,838.0001,837.0001,837.0001,837.0001,837.0001,838.0001,839.0001,841.0001,842.0001,841.0001,840.0001,838.0001,839.0001,840.0001,842.0001,844.0001,844.0001,844.0001,847.0001,851.0001,851.0001,851.0001,850.0001,847.0001,847.0001,847.0001,847.0001,848.0001,847.0001,847.0001,848.0001,851.0001,852.0001,853.0001,851.0001,848.0001,848.0001,848.0001,848.0001,847.0001,846.0001,847.0001,849.0001,852.0001,852.0001,852.0001,852.0001,852.0001,852.0001,852.0001,853.0001,855.0001,855.0001,855.0001,855.0001,855.0001,855.0001,855.0001,852.0001,847.0001,845.0001,845.0001,845.0001,846.0001,849.0001,851.0001,851.0001,849.0001,849.0001,850.0001,850.0001,850.0001,849.0001,851.0001,852.0001,854.0001,856.0001,856.0001,858.0001,859.0001,859.0001,859.0001,857.0001,856.0001,855.0001,856.0001,856.0001,857.0001,857.0001,857.0001,855.0001,853.0001,852.0001,852.0001,852.0001,852.0001,852.0001,852.0001,852.0001,852.0001,852.0001,850.0001,849.0001,846.0001,844.0001,843.0001,843.0001,844.0001,843.0001,842.0001,844.0001,847.0001,849.0001,851.0001,856.0001,861.0001,862.0001,862.0001,865.0001,865.0001,862.0001,857.0001,854.0001,851.0001,851.0001,851.0001,851.0001,850.0001,850.0001,850.0001,848.0001,845.0001,845.0001,845.0001,847.0001,848.0001,849.0001,849.0001,847.0001,846.0001,847.0001,848.0001,850.0001,850.0001,851.0001,851.0001,848.0001,844.0001,841.0001,840.0001,841.0001,844.0001,850.0001,854.0001,854.0001,852.0001,850.0001,847.0001,842.0001,837.0001,835.0001,834.0001,832.0001,831.0001,831.0001,833.0001,834.0001,835.0001,835.0001,835.0001,835.0001,834.0001,834.0001,834.0001,834.0001,834.0001,834.0001,834.0001,834.0001,832.0001,831.0001,830.0001,829.0001,828.0001,827.0001,825.0001,823.0001,822.0001,823.0001,826.0001,826.0001,826.0001,823.0001,822.0001,819.0001,816.0001,816.0001,816.0001,818.0001,819.0001,816.0001,814.0001,816.0001,819.0001,819.0001,817.0001,817.0001,817.0001,815.0001,815.0001,818.0001,821.0001,821.0001,818.0001,558,551,278,8,2,0,0,0,0,0,0,0,0,0,0,0,0,0,0,0,0,0,0,0,0,0,0,0,0,0,0,0,0,0,0,0,0,0,0,0,0,0,0,0,0,0,0,0,0,0,0,0,0,0,0,0,0,0,0,0,0,0,0,0,0,0,0,0,0,0,0,0,0,0,0,0,0,0,0,0,0,0,0,0,0,0,0,0,0,0,0,0,0,0,0,0,0,0,0,0,0,0,0,0,0,0,0,0,0,0,0,0,0,0,0,0,0
