1000,1000,1000,1000,1000,1000,1000,1000,1000,1000,1000,1000,1000,1000,1000,1000,1000,1000,1000,1000,1000,1000,1000,1000,1000,1000,1000,1000,1000,1000,1000,1000,1000,1000,1000,1000,1302.112,1310.869,1319.626,1223.863,1223.863,1000,1224.015,1224.661,1000,1224.927,1000,1000,1000,1000,1000,1000,1000,1000,1000,1000,1000,1000,1000,1000,1000,1000,1000,1000,1000,1236.496,1000,1000,1000,1000,1000,1000,1000,1000,1000,1230.962,1000,1232.3,1000,1000,1000,1000,1000,1000,1245.557,1248.476,1000,1248.841,1252.003,1000,1000,1000,1000,1256.868,1254.922,1251.152,1248.841,1250.179,1249.328,1000,1000,1000,1000,1000,1000,1274.625,1271.949,1267.084,1268.787,1268.057,1266.355,1268.787,1271.949,1271.949,1275.841,1278.517,1282.166,1280.706,1284.112,1283.625,1291.896,1000,1000,1000,1000,1000,1295.788,1300.652,1305.031,1305.031,1304.058,1000,1000,1000,1294.328,1299.68,1308.436,1000,1000,1322.545,1330.328,1325.464,1331.302,1320.599,1317.68,1315.734,1317.68,1315.734,1325.464,1334.22,1341.518,1346.383,1239.354,1342.491,1345.41,1340.545,1342.491,1342.491,1239.506,1239.658,1239.772,1240.054,1240.799,1240.419,1240.229,1240.882,1241.772,1000,1000,1000,1000,1000,1251.517,1000,1000,1000,1000,1000,1000,1175.867,1175.381,1183.894,1198.975,1202.867,1207.732,1218.435,1223.3,1237.895,1252.976,1140.703,1141.395,1142.421,1143.12,1144.853,1145.735,1145.552,1145.036,1144.245,1143.515,1000,1000,1000,1000,1000,1000,1000,1000,1000,1000,1000,1000,1000,1000,1000,1000,1000,1165.894,1174.651,1000,1000,1000,1000,1000,1000,1000,1000,1000,1000,1000,1000,1000,1000,1000,1000,1000,1000,1000,1000,1147.286,1145.37,1000,1142.01,1140.338,1214.057,1000,1000,1000,1000,1000,1000,1252.672,1247.868,1244.098,1242.623,1241.772,1241.255,1242.623,1242.121,1241.148,1000,1241.665,1239.811,1343.464,1338.599,1334.22,1334.22,1334.22,1342.491,1239.392,1346.383,1338.599,1338.599,1335.193,1325.464,1326.437,1330.328,1325.464,1319.626,1322.545,1000,1000,1000,1000,1000,1000,1306.004,1299.193,1299.193,1297.247,1297.247,1295.788,1302.112,1298.22,1292.382,1293.355,1293.355,1288.49,1285.571,1290.436,1285.085,1279.247,1280.706,1282.166,1275.841,1275.841,1278.517,1276.571,1270.003,1270.733,1272.436,1267.571,1263.436,1263.922,1000,1000,1247.138,1248.476,1246.409,1246.409,1250.179,1255.895,1255.409,1255.409,1255.895,1252.49,1255.409,1253.463,1253.949,1248.841,1247.625,1245.192,1245.192,1242.517,1243.246,1241.787,1240.327,1241.422,1241.422,1239.354,1239.598,1239.598,1238.017,1236.8,1238.017,1236.253,1236.8,1235.949,1236.496,1235.949,1237.104,1233.516,1232.057,1231.388,1230.354,1229.989,1228.712,1228.226,1229.047,1228.378,1227.77,1000,1000,1213.814,1209.192,1203.232,1201.651,1198.489,1197.759,1195.57,1196.3,1190.097,1186.448,1183.012,1181.796,1181.447,1181.675,1182.298,1182.86,1183.773,1184.137,1183.955,1186.448,1190.34,1191.192,1192.347,1200.8,1208.705,1000,1000,1000,1293.842,1277.787,1270.003,1270.003,1270.976,1272.922,1265.139,1270.976,1262.22,1257.598,1246.165,1246.165,1241.3,1243.976,1243.976,1000,1000,1000,1000,1000,1000,1000,1000,1000,1000,1000,1000,1000,1217.949,1216.733,1214.422,1214.604,1000,1000,1000,1000,1000,1178.178
1000,1000,1000,1000,1000,1000,1000,1000,1000,1000,1000,1000,1000,1000,1000,1000,1000,1000,1000,1000,1000,1000,1000,1000,1000,1000,1000,1000,1000,1000,1000,1000,1000,1000,1000,1000,1000,1307.95,1318.653,1323.031,1319.626,1000,1329.842,1000,1000,1000,1000,1000,1000,1000,1000,1000,1000,1000,1000,1000,1000,1000,1000,1000,1000,1000,1000,1000,1000,1000,1000,1000,1000,1000,1000,1225.885,1226.098,1225.406,1225.885,1225.991,1226.918,1226.675,1000,1000,1000,1000,1000,1235.402,1236.496,1236.8,1237.408,1236.253,1237.104,1237.408,1000,1240.327,1000,1241.057,1241.057,1237.713,1238.381,1237.408,1238.017,1237.408,1000,1000,1000,1000,1000,1252.976,1251.152,1248.476,1252.976,1253.463,1252.976,1255.895,1256.868,1254.922,1254.436,1256.382,1259.057,1257.355,1261.733,1265.139,1269.517,1270.733,1270.733,1265.139,1268.057,1265.868,1270.733,1274.625,1000,1000,1000,1000,1000,1000,1277.787,1277.787,1281.436,1000,1285.085,1289.463,1296.76,1298.22,1305.031,1298.22,1290.923,1290.923,1290.923,1288.49,1296.76,1302.112,1309.409,1310.382,1313.788,1311.842,1318.653,1313.788,1316.707,1320.599,1327.41,1334.22,1336.653,1346.383,1239.544,1239.506,1239.43,1239.902,1000,1000,1000,1000,1000,1000,1000,1000,1000,1000,1178.543,1181.705,1186.083,1188.273,1186.083,1191.192,1198.975,1206.273,1210.651,1224.273,1230.111,1241.3,1000,1140.414,1140.528,1140.809,1000,1000,1143.379,1144.093,1142.998,1142.527,1142.101,1000,1000,1000,1000,1000,1000,1000,1000,1000,1000,1000,1000,1000,1000,1000,1000,1000,1160.543,1165.407,1158.597,1000,1000,1000,1000,1000,1000,1000,1000,1000,1000,1000,1000,1000,1000,1000,1000,1000,1000,1000,1000,1000,1144.397,1142.634,1140.984,1225.246,1000,1206.273,1000,1000,1000,1000,1000,1000,1000,1000,1240.882,1240.289,1240.054,1240,1000,1000,1000,1000,1000,1316.707,1311.842,1314.761,1307.463,1309.409,1313.788,1313.788,1306.49,1311.842,1306.004,1304.058,1301.625,1306.004,1299.193,1302.112,1295.788,1291.896,1000,1000,1000,1000,1000,1277.787,1277.787,1279.247,1273.895,1277.787,1275.841,1278.517,1272.436,1270.733,1268.787,1269.517,1262.949,1263.436,1266.355,1262.949,1258.571,1262.22,1260.03,1255.895,1257.355,1259.057,1255.895,1253.949,1255.895,1255.895,1252.49,1252.003,1251.152,1246.773,1242.152,1236.8,1237.104,1236.253,1236.253,1239.354,1242.517,1241.787,1241.787,1243.246,1239.598,1241.787,1239.963,1240.692,1236.253,1236.253,1234.064,1234.854,1232.3,1232.787,1231.875,1231.631,1230.78,1231.388,1229.989,1230.172,1230.354,1229.777,1229.047,1229.989,1228.895,1229.412,1228.53,1228.712,1227.618,1228.074,1226.432,1226.31,1226.554,1226.31,1225.885,1225.687,1224.995,1224.782,1224.722,1224.661,1000,1000,1206.395,1202.381,1198.854,1199.584,1196.3,1194.84,1195.57,1000,1000,1184.29,1182.435,1181.447,1181.234,1181.796,1182.161,1182.435,1183.165,1183.317,1183.469,1185.84,1190.34,1190.644,1193.624,1199.219,1206.395,1000,1000,1000,1276.328,1261.003,1256.868,1252.49,1255.165,1253.219,1247.868,1250.301,1245.192,1239.354,1232.422,1231.206,1228.043,1229.989,1000,1000,1000,1000,1000,1000,1000,1000,1000,1000,1000,1000,1215.82,1213.844,1213.327,1211.624,1210.53,1210.743,1211.351,1000,1000,1000,1000,1180.002
1000,1000,1000,1000,1000,1000,1000,1000,1000,1000,1000,1000,1000,1000,1000,1000,1000,1000,1000,1000,1000,1000,1000,1000,1000,1000,1000,1000,1000,1000,1000,1000,1000,1000,1000,1000,1000,1000,1000,1300.166,1299.193,1000,1312.815,1000,1330.815,1324.977,1000,1000,1000,1000,1000,1000,1000,1000,1000,1000,1000,1000,1000,1000,1000,1000,1000,1000,1000,1000,1000,1000,1000,1000,1332.761,1223.901,1224.053,1223.901,1224.091,1224.129,1224.433,1224.334,1000,1000,1000,1000,1000,1000,1229.777,1229.989,1229.777,1229.412,1229.229,1229.047,1000,1000,1000,1000,1232.057,1230.962,1230.78,1230.962,1230.78,1230.172,1230.598,1231.631,1234.307,1000,1238.625,1240.692,1238.625,1000,1240.327,1239.963,1238.625,1242.517,1241.787,1241.057,1241.057,1243.611,1244.341,1244.341,1245.557,1247.625,1250.665,1252.003,1249.814,1247.625,1250.179,1248.841,1251.152,1256.868,1259.544,1262.22,1000,1000,1000,1261.247,1000,1260.03,1262.22,1260.03,1265.139,1269.517,1268.787,1273.166,1279.247,1276.571,1269.517,1273.166,1271.949,1271.22,1278.517,1286.544,1288.49,1294.328,1294.815,1293.355,1299.193,1300.652,1000,1000,1320.599,1325.464,1000,1337.626,1000,1342.491,1000,1000,1000,1000,1000,1000,1000,1160.056,1168.083,1170.516,1178.543,1185.354,1190.219,1189.732,1192.651,1191.192,1191.678,1195.084,1202.867,1209.678,1209.678,1216.489,1223.3,1224.273,1000,1000,1000,1000,1000,1000,1000,1141.904,1141.554,1141.478,1141.174,1000,1000,1000,1000,1000,1000,1000,1000,1000,1000,1000,1000,1000,1000,1153.124,1151.056,1156.286,1157.137,1160.543,1154.461,1000,1000,1000,1000,1000,1000,1000,1000,1000,1000,1000,1000,1000,1000,1000,1000,1000,1000,1000,1000,1000,1143.652,1000,1140.49,1205.3,1196.543,1195.57,1194.111,1194.111,1000,1188.759,1176.597,1000,1000,1000,1000,1242,1000,1000,1000,1000,1000,1000,1000,1302.112,1296.76,1299.193,1293.355,1295.788,1000,1290.923,1285.571,1290.923,1283.625,1281.436,1282.166,1283.625,1277.058,1279.247,1275.841,1273.166,1265.139,1262.949,1262.949,1262.949,1257.355,1257.355,1259.544,1258.084,1253.463,1255.895,1255.895,1254.922,1251.152,1251.638,1249.814,1247.138,1243.976,1245.557,1245.922,1243.246,1244.341,1246.409,1244.341,1243.611,1245.557,1245.192,1242.881,1241.057,1240.692,1239.598,1238.381,1238.017,1238.381,1235.402,1232.787,1230.354,1230.598,1230.172,1230.78,1232.057,1232.057,1230.962,1230.78,1230.962,1229.229,1230.172,1230.172,1229.777,1227.922,1227.618,1227.192,1226.918,1226.204,1226.432,1225.885,1225.991,1225.778,1226.098,1225.885,1226.098,1225.991,1225.991,1225.687,1225.489,1225.489,1225.315,1224.782,1224.722,1224.539,1224.661,1224.167,1224.053,1224.38,1224.205,1223.863,1329.842,1326.923,1315.734,1317.68,1000,1000,1000,1204.084,1200.435,1198.854,1199.948,1198.124,1195.205,1197.759,1000,1000,1182.572,1182.161,1181.34,1181.34,1181.553,1182.161,1182.039,1182.708,1182.435,1183.012,1184.654,1188.273,1188.273,1193.624,1198.124,1000,1000,1000,1000,1253.949,1240.327,1239.841,1236.922,1237.895,1235.098,1233.273,1232.908,1229.989,1226.584,1222.814,1220.685,1219.53,1000,1000,1000,1000,1000,1000,1000,1000,1000,1000,1000,1000,1212.05,1211.898,1210.013,1209.922,1209.587,1209.154,1209.032,1209.359,1000,1000,1000,1000,1177.327
1000,1000,1000,1000,1000,1000,1000,1000,1000,1000,1000,1000,1000,1000,1000,1000,1000,1000,1000,1000,1000,1000,1000,1000,1000,1000,1000,1000,1000,1000,1000,1000,1000,1000,1000,1000,1000,1000,1000,1285.085,1272.922,1270.003,1269.517,1000,1000,1000,1000,1000,1000,1000,1000,1000,1000,1000,1000,1000,1000,1000,1000,1000,1000,1000,1000,1000,1000,1300.166,1296.274,1294.815,1297.247,1293.842,1292.869,1302.112,1302.112,1305.031,1310.869,1313.788,1324.977,1325.95,1324.977,1327.896,1000,1223.863,1224.129,1224.486,1000,1224.851,1224.927,1224.851,1225.071,1000,1225.687,1226.098,1226.432,1226.918,1227.055,1226.554,1226.31,1226.098,1225.778,1225.778,1226.204,1227.329,1228.712,1229.989,1230.78,1230.962,1229.412,1229.777,1230.354,1230.598,1230.172,1231.875,1231.206,1232.543,1231.875,1000,1234.55,1234.307,1234.064,1235.645,1236.8,1237.104,1235.949,1234.307,1235.402,1235.098,1236.8,1241.057,1000,1244.341,1000,1245.922,1246.773,1246.773,1245.922,1247.138,1248.476,1247.99,1249.328,1249.814,1249.328,1250.665,1254.436,1257.355,1254.922,1256.868,1258.084,1257.355,1262.22,1269.517,1272.436,1278.517,1281.436,1281.436,1284.112,1000,1000,1000,1000,1000,1000,1000,1000,1000,1000,1000,1000,1000,1000,1164.191,1164.678,1166.867,1174.164,1173.435,1177.813,1183.165,1188.759,1187.3,1190.219,1189.732,1192.651,1194.111,1199.462,1205.3,1203.84,1000,1000,1000,1000,1000,1000,1000,1000,1000,1000,1000,1141.395,1000,1000,1000,1000,1000,1000,1000,1000,1000,1000,1000,1000,1000,1000,1000,1000,1148.624,1147.164,1148.259,1149.84,1151.421,1147.894,1152.637,1000,1000,1000,1000,1000,1000,1000,1000,1000,1000,1000,1000,1000,1000,1000,1000,1000,1000,1000,1000,1140.224,1234.003,1215.03,1000,1186.813,1188.273,1189.732,1191.192,1198.003,1191.192,1187.3,1178.543,1165.407,1152.272,1000,1000,1000,1000,1000,1000,1000,1000,1000,1000,1000,1284.112,1280.706,1280.706,1275.112,1273.166,1271.949,1274.625,1267.571,1267.571,1266.355,1261.733,1255.895,1258.571,1254.436,1252.49,1249.328,1247.625,1246.773,1247.138,1245.192,1242.881,1243.976,1241.787,1238.625,1238.017,1239.598,1238.625,1237.713,1238.99,1239.963,1238.625,1237.408,1237.408,1236.8,1234.307,1234.854,1235.402,1234.307,1233.273,1234.55,1234.064,1233.516,1232.543,1232.543,1231.388,1230.78,1229.047,1229.594,1228.226,1227.055,1225.885,1226.797,1225.991,1226.31,1226.432,1226.204,1225.489,1225.489,1225.406,1225.231,1225.778,1225.489,1225.406,1224.851,1224.6,1224.539,1224.6,1224.433,1224.334,1224.167,1224.053,1223.939,1223.939,1224.015,1223.977,1224.015,1224.015,1223.787,1326.923,1329.842,1324.004,1316.707,1319.626,1315.734,1315.734,1307.95,1306.977,1316.707,1318.653,1307.95,1304.058,1301.139,1288.49,1288.49,1291.896,1000,1000,1203.232,1201.651,1199.584,1198.854,1197.394,1194.597,1196.3,1000,1000,1183.012,1182.161,1181.447,1181.34,1181.553,1181.675,1181.796,1182.435,1182.435,1183.317,1187.3,1189.793,1189.793,1195.935,1198.124,1000,1000,1000,1000,1233.273,1227.314,1227.314,1225.489,1223.787,1223.422,1221.537,1221.537,1220.077,1219.53,1216.489,1215.638,1214.209,1000,1000,1000,1000,1000,1000,1000,1000,1000,1000,1000,1208.766,1208.675,1208.485,1310.382,1306.49,1305.517,1306.49,1307.463,1000,1000,1000,1000,1190.948,1179.151
1000,1000,1000,1000,1000,1000,1000,1000,1000,1000,1000,1000,1000,1000,1000,1000,1000,1000,1000,1000,1000,1000,1000,1000,1000,1000,1000,1000,1000,1000,1000,1000,1000,1000,1000,1000,1000,1000,1000,1262.949,1245.192,1236.071,1232.908,1230.354,1000,1000,1000,1000,1000,1000,1000,1229.138,1231.206,1232.908,1236.922,1236.071,1000,1240.327,1000,1246.652,1000,1000,1000,1000,1000,1271.463,1269.517,1272.436,1271.463,1270.976,1272.922,1278.76,1281.193,1284.112,1285.085,1290.436,1297.247,1299.193,1297.247,1302.112,1306.977,1304.058,1000,1313.788,1000,1315.734,1316.707,1315.734,1318.653,1316.707,1325.95,1329.842,1223.863,1223.939,1224.053,1223.863,1223.939,1223.825,1223.977,1224.091,1224.288,1224.6,1224.927,1225.071,1225.155,1225.315,1224.927,1225.071,1225.687,1225.885,1225.778,1226.432,1226.675,1226.554,1226.554,1226.675,1227.77,1227.618,1227.77,1229.229,1230.78,1230.598,1230.354,1229.594,1229.777,1228.895,1230.598,1232.3,1234.064,1235.402,1237.104,1236.253,1238.381,1237.104,1237.408,1237.408,1240.327,1238.625,1241.057,1240.692,1242.152,1241.057,1242.881,1243.976,1245.557,1246.409,1248.841,1251.152,1254.922,1259.057,1262.949,1000,1000,1000,1000,1000,1000,1000,1000,1000,1000,1000,1000,1000,1000,1000,1000,1156.651,1165.407,1171.732,1168.57,1168.57,1172.705,1170.516,1172.218,1176.597,1181.705,1181.219,1181.219,1184.624,1188.273,1191.192,1194.111,1203.84,1198.003,1000,1000,1000,1000,1000,1000,1000,1000,1000,1000,1000,1000,1000,1000,1000,1000,1000,1000,1000,1000,1000,1000,1000,1000,1000,1000,1000,1141.448,1146.434,1145.705,1146.799,1146.799,1148.624,1146.069,1149.84,1000,1000,1000,1000,1000,1000,1000,1000,1000,1000,1000,1000,1000,1000,1000,1000,1000,1000,1000,1000,1000,1206.273,1194.111,1178.543,1179.273,1182.435,1181.705,1183.894,1186.813,1181.219,1176.597,1175.867,1166.867,1157.624,1153.124,1150.205,1143.029,1000,1000,1000,1000,1000,1000,1000,1000,1000,1272.436,1267.084,1259.544,1256.382,1254.922,1254.436,1250.665,1252.003,1249.814,1247.625,1245.192,1243.976,1241.057,1239.598,1237.713,1236.253,1236.496,1237.713,1236.496,1235.098,1235.402,1233.273,1230.172,1229.989,1230.962,1231.206,1230.354,1231.875,1232.543,1231.206,1229.777,1229.989,1229.229,1227.77,1228.074,1228.53,1227.618,1227.192,1228.074,1227.329,1226.918,1227.055,1227.055,1226.554,1226.31,1225.581,1225.687,1224.782,1224.243,1223.939,1224.167,1223.863,1223.825,1223.863,1332.761,1325.95,1329.842,1223.787,1332.761,1223.939,1332.761,1325.95,1321.085,1318.653,1318.653,1323.031,1323.031,1318.653,1312.815,1311.842,1306.004,1308.923,1309.896,1310.869,1306.977,1307.95,1301.139,1296.274,1295.301,1294.815,1287.517,1290.923,1284.112,1281.193,1275.355,1276.814,1275.355,1284.112,1280.22,1279.247,1275.355,1270.003,1265.139,1266.598,1000,1000,1000,1200.8,1200.435,1199.584,1198.124,1195.57,1196.3,1000,1000,1181.796,1181.553,1181.127,1181.34,1181.796,1182.161,1182.435,1183.165,1182.708,1183.773,1186.874,1188.516,1188.029,1193.867,1000,1000,1000,1000,1000,1219.834,1217.219,1216.307,1216.976,1214.422,1214.786,1213.661,1213.327,1212.506,1000,1000,1000,1000,1000,1000,1000,1000,1000,1000,1000,1000,1291.409,1298.22,1301.139,1295.301,1290.436,1288.49,1282.652,1277.301,1278.274,1276.328,1000,1000,1000,1000,1000,1199.219,1182.435
1000,1000,1000,1000,1000,1000,1000,1000,1000,1000,1000,1000,1000,1000,1000,1000,1000,1000,1000,1000,1000,1000,1000,1000,1000,1000,1000,1000,1000,1000,1000,1000,1000,1000,1000,1000,1000,1000,1000,1250.301,1232.422,1221.537,1218.192,1216.976,1216.976,1000,1000,1000,1000,1000,1222.814,1224.03,1225.489,1225.125,1229.625,1230.354,1233.273,1000,1000,1235.584,1000,1234.246,1239.354,1238.868,1000,1251.517,1253.949,1252.49,1000,1254.436,1253.949,1253.949,1259.057,1259.057,1258.328,1262.949,1268.057,1271.463,1268.057,1272.922,1276.814,1000,1000,1000,1000,1000,1282.652,1283.625,1287.517,1288.49,1292.869,1292.869,1300.166,1300.166,1306.977,1305.031,1306.977,1302.112,1306.977,1309.896,1319.626,1326.923,1332.761,1223.825,1332.761,1326.923,1322.058,1324.977,1223.787,1223.825,1223.939,1224.243,1224.38,1224.288,1224.433,1224.486,1224.722,1224.782,1224.927,1225.406,1225.687,1225.778,1225.406,1225.406,1225.315,1225.315,1225.991,1226.918,1227.77,1228.378,1228.712,1228.074,1229.229,1229.047,1229.777,1230.598,1232.3,1231.388,1233.516,1233.76,1235.402,1235.645,1236.496,1237.713,1241.057,1242.881,1243.976,1247.138,1250.179,1000,1000,1000,1000,1000,1000,1000,1000,1000,1000,1000,1000,1000,1000,1000,1000,1000,1157.624,1165.894,1172.218,1175.867,1172.218,1175.867,1179.759,1000,1000,1000,1000,1000,1186.813,1190.219,1194.111,1196.543,1000,1000,1000,1000,1000,1000,1000,1000,1000,1000,1000,1000,1000,1000,1000,1000,1000,1000,1000,1000,1000,1000,1000,1000,1000,1000,1000,1000,1000,1000,1142.664,1144.975,1144.002,1146.069,1145.705,1147.164,1146.069,1151.056,1000,1000,1000,1000,1000,1000,1000,1000,1000,1000,1000,1000,1000,1000,1000,1000,1000,1000,1000,1000,1000,1211.138,1204.327,1000,1176.597,1174.651,1174.651,1172.705,1177.813,1171.002,1166.867,1168.57,1162.732,1156.286,1154.826,1153.124,1147.164,1000,1000,1000,1000,1000,1000,1000,1000,1000,1000,1000,1244.706,1243.246,1241.057,1239.354,1238.625,1239.354,1238.381,1237.104,1236.253,1236.496,1233.516,1232.057,1230.78,1230.172,1229.229,1229.412,1228.895,1227.466,1226.797,1226.204,1225.885,1225.778,1226.675,1226.918,1226.554,1227.055,1227.192,1226.31,1225.581,1225.315,1224.782,1224.433,1224.539,1224.782,1224.433,1224.433,1224.722,1224.661,1224.433,1224.782,1224.661,1224.539,1224.38,1224.129,1224.167,1223.825,1326.923,1315.734,1314.761,1306.004,1305.031,1303.085,1306.977,1306.977,1308.923,1313.788,1311.842,1311.842,1304.058,1301.139,1295.301,1292.869,1294.815,1298.22,1296.274,1290.923,1286.058,1282.652,1279.247,1281.193,1284.112,1284.112,1283.625,1284.112,1278.76,1273.895,1274.868,1270.003,1265.139,1266.598,1261.49,1255.652,1253.949,1255.165,1252.49,1260.274,1262.949,1261.49,1258.328,1250.787,1246.165,1245.679,1000,1000,1000,1198.854,1200.435,1199.584,1200.435,1197.759,1198.854,1000,1000,1181.553,1181.021,1180.823,1181.34,1182.039,1182.86,1183.165,1184.137,1183.773,1185.232,1188.029,1190.888,1193.259,1000,1000,1000,1000,1000,1216.489,1213.145,1212.506,1211.351,1211.761,1210.423,1210.317,1209.154,1209.283,1208.561,1000,1000,1000,1000,1000,1000,1000,1000,1000,1275.355,1271.949,1267.084,1267.084,1268.544,1265.625,1263.679,1261.247,1255.409,1255.895,1251.03,1248.841,1000,1000,1000,1000,1000,1000,1000,1183.408
1000,1000,1000,1000,1000,1000,1000,1000,1000,1000,1000,1000,1000,1000,1000,1000,1000,1000,1000,1000,1000,1000,1000,1000,1000,1000,1000,1000,1000,1000,1000,1000,1000,1000,1000,1000,1000,1000,1000,1241.3,1223.422,1216.064,1213.661,1213.145,1212.658,1212.506,1212.658,1000,1000,1000,1217.705,1218.983,1219.53,1218.192,1220.077,1221.537,1224.03,1000,1000,1000,1000,1000,1225.854,1227.314,1232.057,1235.584,1236.071,1234.611,1000,1237.895,1236.435,1236.922,1240.327,1237.408,1236.435,1240.327,1241.787,1246.165,1247.382,1253.219,1253.949,1254.436,1253.219,1000,1000,1000,1260.274,1263.679,1265.139,1265.139,1269.517,1270.976,1271.463,1275.355,1281.193,1279.247,1279.247,1280.22,1279.247,1282.652,1286.544,1296.274,1295.301,1301.139,1298.22,1297.247,1293.842,1301.139,1305.031,1309.896,1312.815,1316.707,1319.626,1321.085,1323.031,1324.977,1326.923,1330.815,1331.788,1223.863,1223.901,1224.015,1223.787,1223.787,1223.863,1223.939,1224.167,1224.486,1224.927,1225.071,1224.851,1224.995,1225.315,1225.315,1225.885,1226.797,1227.922,1227.77,1228.895,1229.594,1231.206,1230.78,1232.543,1234.854,1237.713,1240.692,1242.152,1244.341,1246.773,1000,1000,1000,1000,1000,1000,1000,1000,1000,1000,1000,1140.292,1140.9,1143.272,1000,1000,1000,1158.597,1164.191,1164.678,1165.894,1166.867,1172.218,1000,1000,1000,1000,1000,1000,1000,1000,1000,1000,1000,1000,1000,1000,1000,1000,1000,1000,1000,1000,1000,1000,1000,1000,1000,1000,1000,1000,1000,1000,1000,1000,1000,1000,1000,1000,1000,1000,1000,1139.745,1142.36,1143.272,1142.664,1144.245,1144.61,1146.434,1146.799,1151.056,1000,1000,1000,1000,1000,1000,1000,1000,1000,1000,1000,1000,1000,1000,1000,1000,1000,1000,1000,1000,1218.435,1201.895,1198.003,1180.489,1168.57,1166.867,1168.083,1163.218,1164.678,1161.029,1159.57,1161.516,1156.651,1153.488,1154.461,1151.786,1149.353,1149.84,1153.975,1000,1000,1000,1000,1000,1000,1000,1000,1000,1000,1000,1234.064,1231.388,1230.78,1229.989,1228.712,1228.378,1228.712,1228.074,1227.466,1226.675,1226.098,1226.204,1226.098,1225.581,1225.687,1224.661,1224.167,1223.977,1224.091,1223.977,1224.433,1224.6,1224.433,1224.334,1224.167,1223.825,1331.788,1325.95,1323.031,1324.977,1323.031,1324.004,1319.626,1318.653,1322.058,1324.977,1322.058,1324.977,1324.004,1321.085,1315.734,1309.896,1310.869,1301.139,1292.869,1286.058,1285.085,1278.76,1277.787,1280.22,1282.652,1282.652,1285.085,1290.923,1287.517,1282.652,1276.328,1273.895,1272.436,1269.517,1272.922,1273.895,1272.436,1266.598,1265.868,1262.22,1262.949,1265.139,1268.057,1267.084,1265.139,1265.868,1261.003,1255.165,1253.949,1251.517,1246.652,1244.463,1243.003,1236.435,1232.908,1231.206,1231.571,1232.422,1238.381,1240.327,1240.327,1233.76,1232.422,1231.571,1000,1000,1000,1202.381,1204.57,1203.719,1203.719,1200.435,1201.165,1000,1000,1183.317,1181.796,1181.447,1181.796,1182.161,1182.572,1183.317,1184.137,1184.137,1185.597,1189.793,1192.651,1000,1000,1000,1000,1000,1000,1210.743,1209.587,1209.587,1208.918,1208.971,1208.721,1208.675,1312.328,1314.274,1000,1000,1000,1000,1000,1000,1000,1000,1255.409,1248.841,1255.409,1253.949,1251.03,1253.949,1251.03,1245.922,1243.49,1242.76,1236.435,1238.381,1232.3,1228.895,1000,1000,1000,1000,1000,1000,1000,1183.894
1000,1000,1000,1000,1000,1000,1000,1000,1000,1000,1000,1000,1000,1000,1000,1000,1000,1000,1000,1000,1000,1000,1000,1000,1000,1000,1000,1000,1000,1000,1000,1000,1000,1000,1000,1000,1000,1000,1000,1000,1000,1000,1209.922,1210.013,1209.663,1209.504,1000,1000,1000,1000,1214.209,1214.786,1214.209,1212.962,1213.479,1215.03,1000,1000,1000,1000,1212.506,1213.844,1215.395,1216.976,1220.077,1222.145,1220.928,1221.841,1000,1224.76,1224.395,1225.489,1226.949,1226.584,1225.489,1229.138,1229.989,1233.76,1232.908,1236.071,1236.071,1000,1000,1000,1000,1000,1000,1000,1246.165,1000,1000,1000,1000,1253.219,1256.868,1256.868,1259.544,1260.274,1257.598,1261.49,1264.409,1268.057,1266.598,1272.922,1270.003,1270.976,1270.976,1278.76,1281.193,1285.085,1288.49,1292.869,1295.301,1291.896,1293.842,1296.274,1293.842,1296.274,1299.193,1299.193,1299.193,1304.058,1299.193,1305.031,1309.896,1309.896,1312.815,1321.085,1327.896,1223.787,1223.901,1224.091,1224.205,1224.433,1224.851,1225.406,1225.778,1225.991,1226.432,1227.329,1229.412,1229.594,1231.388,1000,1000,1242.881,1000,1000,1000,1000,1000,1000,1000,1000,1000,1000,1000,1000,1000,1000,1000,1000,1000,1000,1000,1000,1159.083,1163.218,1164.191,1164.191,1000,1000,1000,1000,1000,1000,1000,1000,1000,1000,1000,1000,1000,1000,1000,1000,1000,1000,1000,1000,1000,1000,1000,1000,1000,1000,1000,1000,1000,1000,1000,1000,1000,1000,1000,1000,1000,1000,1000,1000,1000,1141.448,1142.36,1143.637,1142.36,1143.637,1143.029,1144.002,1142.664,1146.434,1147.529,1000,1000,1000,1000,1000,1000,1000,1000,1000,1000,1000,1000,1000,1000,1000,1000,1000,1000,1000,1000,1000,1203.84,1193.138,1000,1000,1000,1000,1000,1000,1153.975,1157.137,1151.786,1149.84,1152.272,1150.569,1148.624,1149.353,1155.313,1000,1000,1000,1000,1000,1000,1000,1000,1000,1000,1000,1000,1225.581,1225.778,1225.315,1224.995,1224.927,1225.315,1224.995,1224.661,1224.288,1224.129,1224.205,1224.053,1223.939,1223.939,1325.95,1313.788,1307.95,1310.869,1307.95,1315.734,1322.058,1321.085,1312.815,1306.004,1299.193,1293.842,1292.869,1294.815,1299.193,1296.274,1298.22,1294.815,1291.896,1293.842,1298.22,1296.274,1300.166,1297.247,1291.896,1284.112,1278.76,1280.22,1277.787,1273.895,1268.544,1267.084,1262.22,1258.328,1257.598,1260.274,1259.544,1259.544,1265.139,1263.679,1261.003,1255.652,1253.949,1253.219,1250.301,1253.219,1254.436,1253.949,1250.301,1250.301,1247.868,1247.868,1247.868,1249.571,1247.868,1244.463,1243.003,1238.868,1233.76,1232.422,1229.989,1228.773,1226.584,1226.219,1222.449,1222.145,1000,1220.685,1220.077,1223.057,1224.395,1222.814,1221.841,1223.422,1224.395,1000,1000,1000,1203.719,1206.395,1205.422,1205.057,1201.651,1201.165,1201.651,1000,1185.232,1182.435,1181.796,1181.796,1182.298,1182.435,1183.469,1184.654,1185.84,1187.786,1194.232,1199.948,1000,1000,1000,1000,1000,1000,1000,1317.193,1317.193,1304.058,1307.463,1305.517,1307.463,1288.49,1000,1000,1000,1000,1000,1242.03,1239.598,1235.219,1238.381,1233.516,1230.111,1231.084,1232.787,1228.408,1232.787,1230.111,1228.895,1228.408,1230.598,1223.787,1222.814,1216.003,1211.016,1205.117,1000,1000,1000,1000,1000,1000,1000
1000,1000,1000,1000,1000,1000,1000,1000,1000,1000,1210.651,1218.192,1000,1000,1219.043,1000,1000,1000,1205.361,1000,1000,1000,1000,1000,1000,1000,1000,1000,1000,1000,1000,1000,1000,1000,1000,1000,1000,1000,1000,1000,1000,1000,1000,1208.485,1208.485,1208.523,1000,1000,1000,1000,1000,1209.427,1209.154,1209.032,1209.093,1209.587,1000,1000,1000,1210.119,1209.663,1209.922,1210.53,1211.351,1212.962,1214.209,1213.661,1213.661,1214.604,1215.82,1216.489,1217.219,1218.192,1218.192,1216.976,1217.462,1218.192,1219.834,1220.077,1221.841,1222.145,1224.03,1224.395,1000,1000,1228.043,1228.773,1229.989,1229.625,1230.841,1232.422,1232.908,1000,1236.071,1237.408,1238.381,1239.354,1238.868,1238.381,1240.327,1240.327,1243.49,1243.49,1247.868,1247.868,1250.787,1254.436,1259.544,1262.949,1000,1270.003,1272.436,1275.355,1272.922,1276.814,1279.247,1277.787,1280.22,1281.679,1281.193,1282.652,1289.463,1288.49,1295.301,1301.139,1300.166,1301.139,1307.95,1316.707,1319.626,1324.004,1329.842,1223.863,1224.015,1224.334,1000,1000,1225.489,1226.098,1000,1000,1000,1000,1000,1000,1000,1000,1000,1000,1000,1000,1000,1000,1000,1000,1000,1000,1000,1000,1000,1000,1000,1153.124,1000,1000,1000,1000,1000,1000,1000,1000,1000,1000,1000,1000,1000,1000,1000,1000,1000,1000,1000,1000,1000,1000,1000,1000,1000,1000,1000,1000,1000,1000,1000,1000,1000,1000,1000,1000,1000,1000,1000,1000,1000,1000,1000,1000,1000,1000,1142.36,1142.056,1144.61,1144.975,1147.529,1144.002,1144.975,1143.272,1144.61,1000,1148.988,1000,1000,1000,1000,1000,1000,1000,1000,1000,1000,1000,1000,1000,1000,1000,1000,1000,1000,1000,1000,1232.057,1000,1219.408,1214.057,1000,1000,1000,1000,1000,1000,1000,1000,1149.84,1147.529,1149.353,1147.894,1145.705,1146.799,1150.569,1151.056,1150.569,1000,1000,1000,1000,1000,1000,1000,1000,1000,1000,1000,1223.939,1331.788,1330.815,1223.787,1224.015,1327.896,1324.004,1317.68,1311.842,1312.815,1310.869,1308.923,1303.085,1295.301,1287.517,1287.517,1290.436,1292.869,1296.274,1299.193,1295.301,1288.49,1279.247,1272.436,1272.922,1271.463,1272.922,1279.247,1279.247,1277.787,1272.436,1270.003,1272.436,1272.922,1268.544,1270.976,1265.868,1261.003,1259.544,1261.49,1263.679,1262.949,1260.274,1256.382,1252.003,1249.571,1245.679,1245.679,1246.652,1246.165,1242.517,1246.165,1240.327,1237.408,1233.76,1233.76,1233.76,1235.098,1236.071,1238.381,1235.584,1234.246,1233.273,1232.057,1231.571,1232.057,1231.571,1231.206,1228.043,1226.584,1223.787,1221.537,1220.381,1220.381,1218.739,1217.949,1217.462,1216.064,1216.489,1217.949,1216.733,1216.307,1217.462,1218.192,1216.064,1216.064,1216.307,1216.489,1000,1000,1000,1000,1210.165,1207.732,1205.422,1202.867,1202.867,1203.232,1193.259,1186.631,1183.317,1182.435,1182.435,1183.012,1183.955,1185.019,1186.205,1187.3,1190.34,1194.84,1206.881,1000,1000,1000,1000,1000,1000,1292.382,1292.382,1293.355,1284.598,1290.436,1288.49,1287.517,1270.49,1000,1000,1000,1234.003,1235.219,1230.111,1228.895,1223.3,1225.733,1221.354,1220.016,1218.678,1220.868,1215.638,1219.043,1216.489,1216.003,1214.057,1215.638,1211.381,1209.922,1206.273,1202.138,1199.219,1000,1000,1197.09,1000,1000,1000,1000
1000,1000,1000,1000,1000,1000,1000,1000,1197.09,1199.644,1202.138,1205.969,1000,1000,1205.361,1203.719,1206.881,1206.577,1203.172,1202.138,1199.827,1000,1000,1000,1000,1000,1000,1000,1000,1000,1000,1000,1000,1000,1000,1000,1000,1000,1000,1000,1000,1000,1000,1293.355,1292.382,1289.463,1291.409,1297.247,1000,1000,1000,1311.355,1306.49,1303.085,1308.436,1208.219,1208.257,1000,1208.371,1000,1000,1208.371,1208.675,1208.812,1209.663,1000,1210.317,1210.317,1210.986,1211.107,1211.107,1211.624,1212.05,1212.05,1211.351,1211.107,1211.107,1211.351,1212.354,1213.479,1214.786,1216.307,1216.976,1217.705,1217.462,1217.949,1218.496,1219.53,1219.287,1220.381,1222.814,1223.787,1225.125,1226.584,1227.679,1228.043,1227.314,1227.314,1226.949,1228.043,1226.584,1227.679,1228.773,1232.422,1233.76,1236.922,1241.787,1245.679,1247.868,1000,1000,1252.003,1253.219,1251.517,1255.652,1256.868,1257.598,1261.49,1263.679,1262.949,1265.139,1272.436,1272.436,1280.22,1286.544,1285.085,1000,1000,1000,1000,1000,1326.923,1331.788,1000,1224.38,1000,1000,1000,1000,1000,1000,1000,1000,1000,1000,1000,1000,1000,1000,1000,1000,1000,1000,1000,1000,1000,1000,1000,1000,1000,1000,1000,1160.056,1000,1000,1000,1000,1000,1000,1000,1000,1000,1000,1000,1000,1000,1000,1000,1000,1000,1000,1000,1000,1000,1000,1000,1000,1000,1000,1000,1000,1000,1000,1000,1000,1000,1000,1000,1000,1000,1000,1000,1000,1000,1000,1000,1000,1000,1000,1000,1000,1144.975,1145.705,1148.259,1143.029,1144.975,1141.752,1142.664,1000,1151.786,1000,1000,1000,1000,1000,1000,1000,1000,1000,1000,1000,1000,1000,1000,1000,1000,1000,1000,1000,1000,1000,1232.057,1232.057,1231.084,1000,1000,1000,1000,1000,1000,1000,1000,1152.272,1146.799,1150.205,1147.529,1145.34,1145.34,1146.799,1145.705,1145.34,1143.637,1000,1000,1000,1000,1000,1000,1000,1000,1000,1000,1000,1000,1312.815,1311.842,1309.896,1303.085,1295.301,1289.463,1286.058,1286.058,1282.652,1285.085,1280.22,1273.895,1270.003,1272.436,1270.976,1270.003,1273.895,1276.328,1268.544,1264.409,1259.544,1255.165,1255.165,1257.598,1256.868,1257.598,1255.652,1250.787,1246.652,1246.652,1249.084,1250.787,1249.084,1250.787,1246.652,1246.165,1243.49,1246.165,1245.192,1245.679,1242.517,1241.3,1236.435,1236.435,1233.76,1233.76,1234.611,1235.098,1229.989,1231.206,1226.219,1223.422,1220.928,1222.449,1221.841,1223.422,1224.03,1226.584,1224.76,1224.03,1223.057,1221.537,1220.928,1219.53,1219.287,1218.496,1216.733,1215.638,1214.786,1213.145,1212.962,1213.479,1212.962,1212.81,1212.506,1212.506,1212.658,1213.661,1213.145,1212.506,1211.488,1211.229,1209.922,1209.838,1210.423,1210.986,1000,1000,1000,1000,1214.3,1211.138,1208.219,1205.422,1205.422,1205.422,1197.03,1190.097,1185.232,1183.773,1183.317,1183.469,1184.137,1185.232,1186.631,1188.029,1192.043,1197.394,1210.165,1219.165,1000,1000,1000,1000,1000,1268.057,1269.517,1270.976,1268.544,1266.111,1270.976,1000,1000,1000,1000,1224.76,1222.327,1220.503,1220.503,1219.53,1216.489,1217.705,1212.111,1209.557,1208.827,1208.462,1204.266,1207.489,1206.273,1205.117,1204.266,1204.509,1201.165,1200.07,1198.641,1196.634,1195.661,1195.92,1000,1000,1000,1193.107,1000,1000
1000,1000,1194.445,1000,1000,1196.193,1000,1000,1195.296,1195.783,1197.242,1199.644,1200.739,1201.651,1201.165,1199.827,1201.895,1201.895,1200.496,1199.827,1199.644,1000,1000,1000,1000,1000,1000,1000,1000,1000,1000,1000,1000,1000,1000,1000,1000,1000,1000,1000,1000,1000,1000,1000,1282.652,1279.247,1275.355,1278.274,1000,1000,1000,1277.301,1272.922,1270.976,1275.355,1284.598,1287.517,1293.355,1297.247,1000,1000,1000,1304.058,1309.409,1317.193,1000,1000,1208.295,1208.371,1208.675,1208.918,1209.154,1209.283,1209.427,1208.918,1208.812,1208.812,1208.918,1209.359,1209.922,1210.317,1210.743,1211.351,1211.761,1211.898,1212.506,1213.327,1213.844,1213.327,1214.209,1215.638,1215.82,1216.489,1217.949,1218.496,1219.834,1220.077,1219.53,1217.949,1218.983,1217.949,1218.192,1220.077,1224.76,1225.489,1228.408,1232.908,1235.098,1236.071,1000,1237.895,1237.408,1240.327,1239.841,1241.787,1243.976,1246.165,1247.382,1249.084,1250.301,1254.436,1262.949,1265.139,1000,1284.112,1280.22,1000,1000,1000,1000,1000,1000,1000,1000,1000,1000,1000,1000,1000,1000,1000,1000,1000,1000,1000,1000,1000,1000,1000,1000,1000,1000,1000,1000,1000,1000,1000,1000,1000,1000,1000,1000,1000,1000,1000,1000,1000,1000,1000,1000,1000,1000,1000,1000,1000,1000,1000,1000,1000,1000,1000,1000,1000,1000,1000,1327.896,1000,1000,1000,1000,1000,1000,1000,1000,1000,1000,1000,1000,1000,1000,1000,1000,1000,1000,1000,1000,1000,1000,1000,1000,1000,1000,1000,1152.637,1144.002,1145.705,1142.36,1142.056,1000,1152.272,1153.975,1000,1000,1000,1000,1000,1000,1000,1000,1000,1000,1000,1000,1000,1000,1000,1000,1000,1000,1000,1000,1228.165,1226.219,1227.192,1000,1000,1000,1000,1000,1000,1000,1000,1000,1000,1000,1000,1000,1000,1000,1000,1141.448,1138.164,1134.819,1000,1132.417,1000,1000,1000,1000,1000,1000,1000,1000,1000,1000,1000,1000,1276.328,1269.517,1265.139,1264.409,1262.22,1262.22,1265.868,1265.139,1262.22,1259.544,1259.544,1255.165,1251.517,1252.49,1253.949,1249.571,1249.084,1244.463,1242.517,1240.327,1240.814,1238.868,1239.354,1236.922,1234.246,1232.057,1233.273,1234.611,1234.611,1233.76,1235.584,1233.273,1233.273,1230.841,1231.206,1228.408,1226.584,1225.854,1226.949,1224.03,1225.854,1225.125,1224.395,1222.814,1222.145,1217.949,1218.192,1215.03,1215.03,1214.786,1216.064,1215.82,1216.733,1216.733,1217.219,1216.064,1215.212,1214.422,1214.026,1213.661,1212.506,1212.354,1211.624,1210.53,1210.119,1209.747,1209.359,1209.427,1209.663,1209.504,1209.838,1209.427,1209.283,1209.359,1209.663,1209.427,1209.504,1208.918,1208.918,1208.599,1208.561,1208.523,1208.812,1000,1000,1000,1000,1220.381,1216.003,1211.624,1208.705,1210.165,1211.624,1204.57,1197.03,1189.55,1185.84,1183.955,1183.469,1183.955,1185.232,1186.874,1189.002,1193.867,1199.584,1000,1000,1000,1000,1000,1235.949,1245.436,1247.382,1250.301,1252.49,1000,1000,1000,1000,1000,1000,1208.462,1209.557,1208.827,1206.881,1208.462,1208.827,1204.813,1204.813,1202.381,1200.922,1201.408,1201.165,1198.459,1200.07,1199.036,1197.09,1196.33,1196.33,1194.962,1194.552,1194.552,1193.86,1193.791,1000,1000,1000,1000,1000,1284.598,1273.895
1192.727,1192.727,1193.107,1193.404,1193.464,1193.86,1000,1193.297,1193.404,1193.791,1194.552,1195.661,1195.418,1195.783,1196.057,1195.418,1196.634,1197.242,1197.242,1196.786,1196.938,1194.856,1000,1000,1000,1000,1000,1000,1000,1000,1000,1000,1000,1000,1000,1000,1000,1000,1000,1000,1000,1000,1000,1000,1000,1259.301,1259.787,1259.301,1268.057,1000,1000,1000,1255.409,1254.436,1259.787,1263.679,1263.679,1263.679,1000,1000,1263.679,1267.084,1275.355,1279.247,1285.571,1000,1293.355,1293.355,1294.328,1301.139,1307.463,1309.409,1314.274,1317.193,1309.409,1305.517,1307.463,1309.409,1314.274,1317.193,1208.371,1208.409,1208.409,1208.523,1208.721,1208.918,1209.427,1209.587,1209.504,1209.922,1210.743,1210.636,1211.488,1212.506,1213.145,1213.479,1214.604,1213.844,1213.327,1213.661,1213.661,1213.479,1215.395,1218.983,1219.287,1220.077,1222.449,1224.76,1225.489,1227.679,1231.206,1234.246,1236.435,1236.922,1239.354,1238.381,1000,1241.787,1243.003,1000,1000,1256.382,1000,1000,1000,1000,1000,1000,1000,1000,1000,1000,1000,1000,1000,1000,1000,1000,1000,1000,1000,1000,1000,1000,1000,1000,1000,1000,1000,1000,1000,1000,1000,1000,1000,1000,1000,1000,1000,1000,1000,1000,1000,1000,1000,1000,1000,1000,1000,1000,1000,1000,1000,1000,1000,1000,1000,1000,1000,1000,1000,1000,1000,1000,1000,1000,1000,1000,1000,1000,1000,1000,1000,1000,1000,1000,1000,1000,1000,1000,1000,1000,1000,1000,1000,1000,1000,1000,1000,1000,1000,1000,1000,1000,1000,1000,1000,1000,1000,1000,1000,1000,1000,1145.34,1000,1136.522,1133.694,1000,1131.839,1000,1000,1000,1000,1000,1000,1000,1000,1000,1000,1000,1000,1232.057,1231.084,1232.057,1000,1000,1000,1000,1000,1000,1000,1000,1000,1000,1000,1000,1000,1000,1000,1000,1000,1000,1131.839,1131.201,1130.639,1130.053,1130.137,1129.643,1129.08,1000,1000,1000,1000,1000,1000,1000,1000,1000,1000,1248.354,1248.354,1243.49,1246.165,1251.517,1251.517,1250.301,1247.868,1247.382,1242.517,1237.895,1236.435,1238.381,1234.611,1234.246,1232.422,1232.908,1231.206,1232.422,1229.625,1229.625,1226.584,1224.76,1222.145,1223.057,1224.03,1222.145,1220.928,1223.057,1221.537,1220.928,1219.53,1221.233,1219.53,1219.287,1218.192,1220.077,1217.949,1218.496,1217.949,1216.976,1215.638,1215.212,1212.354,1212.506,1211.229,1211.229,1210.636,1211.229,1210.864,1211.107,1211.229,1211.624,1211.488,1210.864,1210.21,1210.21,1209.922,1209.359,1209.215,1209.093,1208.637,1208.447,1208.447,1208.333,1208.371,1208.409,1208.333,1208.447,1316.22,1208.219,1208.333,1208.295,1317.193,1208.219,1305.517,1301.139,1298.22,1302.112,1299.193,1305.517,1000,1000,1000,1000,1225.246,1218.678,1214.786,1212.111,1211.138,1212.597,1208.219,1202.016,1194.84,1189.55,1186.448,1185.415,1186.023,1187.117,1189.307,1190.644,1195.205,1199.219,1210.165,1000,1000,1000,1000,1228.408,1233.516,1235.219,1236.435,1231.084,1233.516,1000,1000,1000,1000,1200.496,1200.496,1201.651,1201.408,1200.496,1201.408,1201.408,1199.036,1198.641,1197.911,1196.33,1196.193,1195.783,1194.552,1194.749,1194.445,1193.525,1193.297,1193.153,1192.917,1192.765,1193.031,1192.765,1192.841,1192.765,1000,1000,1000,1000,1000,1261.247
1278.76,1279.733,1289.463,1293.842,1302.599,1000,1303.571,1000,1298.707,1302.599,1192.803,1193.069,1193.069,1193.297,1193.464,1193.404,1194.019,1194.27,1194.856,1194.445,1194.552,1193.791,1193.35,1000,1000,1000,1000,1000,1000,1000,1000,1000,1000,1000,1000,1000,1000,1000,1000,1000,1000,1000,1000,1000,1257.355,1246.652,1242.03,1238.868,1242.76,1000,1235.219,1238.381,1237.652,1237.652,1241.3,1245.436,1245.922,1245.436,1248.111,1245.922,1244.706,1244.706,1252.976,1255.409,1258.328,1263.193,1268.057,1268.544,1267.084,1272.922,1276.328,1276.328,1280.706,1286.544,1280.706,1279.733,1284.598,1286.544,1290.436,1296.274,1299.193,1295.301,1296.274,1297.247,1298.22,1305.517,1316.22,1315.247,1314.274,1208.295,1208.599,1208.721,1209.283,1209.922,1210.317,1210.317,1210.636,1210.119,1210.119,1210.423,1000,1000,1212.354,1215.03,1215.638,1217.219,1220.685,1222.449,1223.057,1224.395,1000,1229.625,1000,1234.611,1000,1000,1000,1000,1000,1000,1000,1000,1000,1000,1000,1000,1000,1000,1000,1000,1000,1000,1000,1000,1000,1000,1000,1000,1000,1000,1000,1000,1000,1000,1000,1000,1000,1000,1000,1000,1000,1000,1000,1000,1000,1000,1000,1000,1000,1000,1000,1000,1000,1000,1000,1000,1000,1000,1000,1000,1000,1000,1000,1000,1000,1000,1000,1000,1000,1000,1000,1000,1000,1000,1000,1000,1000,1000,1000,1000,1000,1000,1000,1000,1000,1000,1000,1000,1000,1000,1000,1000,1000,1000,1000,1000,1000,1000,1000,1000,1000,1000,1000,1000,1000,1000,1000,1000,1000,1000,1000,1000,1000,1000,1000,1133.36,1131.201,1130.053,1129.43,1128.814,1128.814,1000,1000,1000,1000,1000,1000,1000,1000,1000,1000,1224.273,1224.273,1224.273,1000,1000,1000,1000,1000,1000,1000,1000,1000,1000,1000,1000,1000,1000,1000,1000,1000,1000,1129.43,1129.308,1129.247,1128.852,1128.89,1128.776,1128.586,1128.434,1000,1000,1000,1000,1000,1000,1000,1000,1000,1000,1000,1235.584,1235.584,1238.381,1238.381,1236.071,1236.071,1237.895,1232.908,1229.989,1228.043,1229.625,1226.219,1226.584,1225.125,1225.854,1224.03,1223.787,1221.233,1220.685,1217.949,1216.976,1216.307,1217.219,1216.976,1216.064,1215.395,1216.307,1215.395,1215.212,1214.786,1215.03,1213.327,1212.658,1212.202,1212.506,1211.624,1211.761,1211.488,1211.229,1210.636,1210.423,1209.215,1209.283,1208.971,1208.918,1208.766,1208.918,1208.812,1208.865,1208.918,1208.918,1208.865,1208.721,1208.295,1208.295,1316.22,1309.409,1307.463,1309.409,1298.22,1299.193,1298.22,1296.274,1297.247,1304.058,1298.22,1302.112,1289.463,1000,1000,1283.625,1282.652,1282.652,1272.922,1272.922,1278.274,1281.679,1281.679,1281.679,1000,1000,1000,1234.49,1227.192,1219.895,1216.003,1212.597,1211.138,1213.814,1210.651,1205.422,1201.165,1195.205,1189.793,1188.029,1188.273,1189.002,1190.888,1192.347,1195.57,1198.489,1000,1000,1000,1000,1000,1000,1225.733,1223.3,1220.868,1000,1000,1000,1000,1198.276,1198.094,1196.057,1196.482,1197.09,1197.09,1196.193,1197.09,1196.482,1195.418,1195.068,1195.418,1194.27,1194.095,1193.715,1193.244,1193.031,1192.803,1296.76,1292.869,1283.625,1279.733,1279.733,1000,1286.544,1290.436,1287.517,1000,1000,1000,1000,1000,1000
1252.49,1252.49,1260.274,1260.274,1000,1000,1271.949,1267.084,1272.922,1275.841,1278.76,1281.679,1283.625,1286.544,1291.896,1295.788,1192.651,1192.803,1193.153,1192.993,1192.993,1192.955,1192.727,1000,1000,1000,1000,1000,1000,1000,1000,1000,1000,1000,1000,1000,1000,1000,1000,1000,1000,1000,1000,1000,1000,1241.3,1234.003,1230.598,1232.3,1000,1226.219,1225.733,1225.733,1224.273,1226.219,1227.922,1228.895,1225.246,1227.435,1225.733,1224.76,1225.733,1234.003,1235.219,1239.598,1242.76,1247.382,1247.382,1248.111,1252.49,1252.976,1252.976,1256.868,1260.76,1259.787,1261.247,1269.517,1270.49,1271.949,1272.922,1275.355,1267.084,1268.544,1271.949,1277.301,1282.652,1294.328,1292.382,1292.382,1295.301,1302.112,1304.058,1316.22,1208.447,1208.675,1208.721,1208.766,1208.675,1208.721,1209.032,1209.663,1000,1210.864,1000,1214.026,1214.026,1215.638,1216.976,1217.219,1000,1000,1229.989,1000,1000,1000,1000,1000,1000,1000,1000,1000,1000,1000,1000,1000,1000,1000,1000,1000,1000,1000,1000,1000,1000,1000,1000,1000,1000,1000,1000,1000,1000,1000,1000,1000,1000,1000,1000,1000,1000,1000,1000,1000,1000,1000,1000,1000,1000,1000,1000,1000,1000,1000,1000,1000,1000,1000,1229.989,1232.422,1236.071,1240.327,1239.354,1000,1000,1000,1000,1000,1000,1000,1000,1000,1000,1000,1000,1000,1000,1000,1000,1000,1000,1000,1000,1000,1000,1000,1000,1000,1000,1000,1000,1000,1000,1000,1000,1000,1000,1000,1000,1000,1000,1000,1000,1000,1000,1000,1000,1000,1000,1000,1000,1000,1000,1000,1000,1000,1132.721,1130.426,1129.43,1129.027,1128.738,1128.51,1223.3,1224.273,1212.597,1192.165,1180.002,1000,1000,1000,1000,1000,1223.3,1224.273,1221.354,1224.273,1000,1000,1000,1000,1000,1000,1000,1000,1000,1000,1000,1000,1000,1000,1000,1000,1000,1000,1000,1129.08,1128.662,1128.7,1128.548,1236.435,1232.543,1000,1000,1000,1000,1000,1000,1000,1000,1000,1000,1000,1000,1000,1000,1233.273,1228.408,1226.584,1227.679,1222.449,1219.53,1218.496,1219.834,1217.219,1217.219,1216.976,1217.462,1216.307,1216.064,1215.03,1214.026,1212.81,1212.506,1212.81,1212.962,1212.658,1212.05,1211.229,1211.351,1210.636,1210.53,1210.119,1209.922,1209.283,1209.215,1208.971,1208.918,1208.812,1208.637,1208.599,1208.561,1208.561,1208.485,1316.22,1315.247,1311.355,1307.463,1305.517,1308.436,1302.112,1299.193,1304.058,1302.112,1301.139,1303.085,1299.193,1297.247,1295.301,1290.436,1283.625,1283.625,1273.895,1272.922,1268.544,1269.517,1268.057,1270.49,1265.625,1263.679,1252.49,1254.436,1249.571,1246.652,1248.841,1249.571,1242.76,1248.111,1251.517,1256.868,1253.949,1253.949,1000,1000,1000,1230.354,1225.976,1219.895,1216.976,1215.273,1214.786,1215.273,1213.327,1210.165,1204.57,1198.854,1192.955,1190.888,1189.55,1190.097,1191.192,1192.347,1193.624,1196.3,1000,1000,1000,1000,1000,1000,1208.827,1000,1000,1000,1000,1000,1195.068,1194.552,1194.643,1193.647,1194.019,1194.095,1194.095,1193.647,1193.647,1193.404,1193.031,1192.803,1192.803,1298.707,1297.734,1296.76,1291.896,1284.598,1284.598,1273.895,1265.625,1261.733,1259.301,1255.895,1258.328,1259.301,1259.301,1258.328,1257.355,1000,1000,1000,1000,1000
1231.814,1235.219,1238.868,1237.895,1000,1000,1246.165,1247.138,1251.03,1252.003,1254.922,1256.868,1260.274,1267.084,1275.841,1281.679,1284.598,1283.625,1290.436,1288.49,1286.544,1292.869,1291.896,1273.895,1263.679,1000,1000,1000,1000,1000,1000,1000,1000,1000,1000,1000,1000,1000,1000,1000,1000,1000,1000,1000,1000,1000,1228.408,1219.043,1000,1216.003,1209.557,1212.111,1213.205,1212.111,1214.786,1216.489,1217.705,1215.273,1216.489,1214.422,1213.205,1214.422,1217.705,1219.53,1222.327,1225.246,1227.922,1230.598,1230.598,1234.003,1235.219,1235.219,1236.435,1239.598,1241.3,1243.976,1251.03,1252.49,1253.949,1254.436,1255.895,1249.571,1251.517,1253.949,1255.409,1257.355,1268.057,1268.544,1270.976,1274.868,1284.598,1286.544,1296.274,1304.058,1311.355,1309.409,1314.274,1310.382,1208.219,1208.523,1209.747,1000,1000,1000,1000,1000,1000,1000,1000,1000,1000,1000,1000,1000,1000,1000,1000,1000,1000,1000,1000,1000,1000,1000,1000,1000,1000,1000,1000,1000,1000,1000,1000,1000,1000,1000,1000,1000,1000,1000,1000,1000,1000,1000,1000,1000,1000,1000,1000,1000,1000,1000,1000,1000,1000,1000,1000,1000,1000,1000,1000,1000,1000,1000,1000,1000,1000,1000,1000,1230.354,1236.922,1238.381,1000,1000,1000,1000,1000,1000,1000,1000,1000,1000,1000,1000,1000,1000,1000,1000,1000,1000,1000,1000,1000,1000,1000,1000,1000,1000,1000,1000,1000,1000,1000,1000,1000,1000,1000,1324.004,1000,1000,1000,1000,1000,1000,1000,1000,1000,1000,1000,1000,1000,1000,1000,1000,1000,1132.569,1131.323,1129.802,1129.133,1128.936,1128.624,1221.354,1219.408,1211.624,1190.219,1180.975,1000,1000,1000,1000,1000,1216.489,1215.516,1214.057,1215.03,1216.489,1000,1000,1000,1000,1000,1000,1000,1000,1000,1000,1000,1000,1000,1000,1000,1000,1000,1000,1000,1128.936,1128.738,1128.586,1241.3,1233.516,1236.435,1000,1000,1000,1000,1000,1000,1000,1000,1000,1000,1000,1000,1000,1000,1000,1000,1221.841,1216.976,1214.604,1212.962,1214.026,1212.81,1212.962,1213.145,1214.026,1213.145,1212.354,1211.624,1211.229,1210.119,1209.922,1209.922,1210.013,1209.427,1209.215,1208.766,1208.766,1208.561,1208.447,1208.371,1208.257,1308.436,1306.49,1300.166,1298.22,1297.247,1298.22,1298.22,1300.166,1297.247,1294.328,1284.598,1279.247,1279.733,1277.301,1276.328,1279.247,1276.328,1275.355,1279.247,1276.328,1272.922,1276.328,1271.949,1270.49,1268.544,1265.625,1259.787,1259.301,1252.49,1252.976,1251.517,1251.517,1248.841,1247.382,1243.976,1000,1231.084,1231.814,1230.111,1228.895,1228.408,1229.625,1227.435,1229.625,1229.625,1236.922,1231.084,1000,1000,1000,1238.868,1225.976,1222.814,1216.489,1213.814,1212.597,1213.327,1213.814,1214.786,1212.597,1207.732,1201.165,1195.935,1192.955,1192.347,1192.347,1192.651,1193.259,1193.624,1193.259,1197.394,1000,1000,1000,1000,1000,1000,1000,1000,1000,1194.552,1193.586,1193.647,1193.297,1193.297,1192.879,1192.955,1192.993,1192.917,1192.803,1192.803,1192.651,1289.463,1280.706,1278.76,1270.976,1270.003,1272.922,1270.003,1261.247,1261.733,1252.49,1244.706,1242.273,1240.814,1236.679,1237.408,1237.895,1000,1231.814,1230.354,1225.246,1000,1000,1000,1000
1214.786,1218.192,1218.192,1216.976,1219.895,1224.03,1225.976,1229.868,1234.49,1235.949,1237.408,1237.408,1240.327,1246.165,1252.49,1261.247,1264.652,1262.706,1266.111,1261.247,1256.868,1261.733,1260.274,1251.03,1245.679,1231.814,1000,1000,1000,1000,1000,1000,1000,1000,1000,1000,1000,1000,1000,1000,1000,1000,1000,1000,1000,1000,1000,1000,1000,1211.381,1201.895,1203.415,1203.962,1203.172,1204.509,1205.969,1207.246,1206.273,1207.246,1206.273,1205.665,1206.273,1207.489,1208.827,1211.016,1213.205,1214.786,1217.341,1219.043,1221.354,1222.327,1223.3,1224.273,1226.219,1228.408,1229.625,1234.733,1234.003,1234.733,1236.435,1238.868,1234.003,1236.435,1239.598,1238.381,1241.3,1249.571,1252.976,1255.895,1263.193,1269.517,1274.868,1285.571,1000,1000,1000,1000,1000,1000,1209.427,1000,1000,1000,1000,1000,1000,1000,1000,1000,1000,1000,1000,1000,1000,1000,1000,1000,1000,1000,1000,1000,1000,1000,1000,1000,1000,1000,1000,1000,1000,1000,1000,1000,1000,1000,1000,1000,1000,1000,1000,1000,1208.333,1310.382,1307.463,1000,1000,1000,1000,1000,1000,1000,1000,1000,1000,1000,1000,1000,1000,1000,1000,1000,1000,1000,1000,1000,1000,1000,1000,1000,1225.125,1230.354,1000,1000,1000,1000,1000,1000,1000,1000,1000,1000,1000,1000,1000,1000,1000,1000,1000,1000,1000,1000,1000,1000,1000,1000,1000,1000,1000,1000,1000,1000,1000,1000,1000,1000,1000,1000,1000,1000,1000,1000,1000,1000,1000,1000,1000,1000,1000,1000,1000,1000,1000,1000,1000,1000,1132.873,1130.426,1129.08,1240.327,1240.327,1226.219,1211.624,1213.57,1213.57,1189.732,1183.408,1000,1000,1000,1000,1000,1214.057,1215.03,1215.03,1210.651,1211.138,1000,1000,1000,1000,1000,1000,1000,1000,1000,1000,1000,1000,1000,1000,1000,1000,1000,1000,1000,1000,1000,1129.802,1128.662,1238.381,1238.381,1000,1000,1000,1000,1000,1000,1000,1000,1000,1000,1000,1000,1000,1000,1000,1000,1000,1000,1000,1210.423,1211.488,1210.864,1210.53,1210.53,1211.488,1210.986,1210.423,1209.504,1209.283,1208.766,1208.561,1208.561,1208.599,1208.257,1315.247,1306.49,1305.517,1301.139,1295.301,1295.301,1291.409,1282.652,1281.679,1278.274,1272.922,1271.949,1272.922,1270.49,1270.976,1269.517,1268.544,1260.76,1256.868,1255.409,1252.976,1250.301,1252.49,1251.517,1252.976,1255.895,1254.436,1251.03,1255.895,1249.571,1247.382,1245.922,1245.922,1242.03,1241.3,1238.381,1238.381,1236.435,1234.003,1230.598,1227.435,1222.814,1219.53,1214.422,1216.003,1215.638,1214.786,1216.854,1217.341,1215.638,1215.638,1214.786,1215.638,1208.462,1000,1000,1000,1231.814,1222.814,1218.192,1212.597,1209.192,1208.219,1207.732,1207.732,1207.246,1208.219,1204.57,1201.165,1197.394,1195.935,1193.624,1193.624,1192.651,1193.259,1192.651,1193.624,1196.665,1000,1000,1000,1000,1193.525,1193.198,1192.841,1192.689,1302.599,1192.651,1301.625,1192.841,1303.571,1300.652,1000,1293.842,1290.436,1288.49,1288.49,1287.517,1282.652,1272.922,1264.652,1261.733,1258.328,1252.49,1249.571,1247.625,1240.814,1237.895,1232.3,1229.868,1225.246,1225.976,1221.597,1223.3,1221.597,1218.192,1214.3,1000,1208.219,1000,1000,1000,1000
1204.084,1206.395,1204.57,1205.422,1208.705,1212.111,1216.489,1218.678,1222.814,1222.327,1222.814,1221.111,1225.246,1227.192,1231.084,1239.354,1241.787,1236.679,1242.273,1241.787,1239.354,1244.706,1247.138,1240.327,1237.408,1225.246,1210.165,1000,1000,1000,1000,1000,1000,1000,1000,1000,1000,1000,1000,1000,1000,1000,1000,1000,1000,1000,1000,1000,1000,1000,1000,1199.036,1198.276,1197.394,1197.911,1198.641,1199.462,1199.462,1200.739,1200.07,1199.462,1201.165,1202.138,1202.928,1204.509,1205.969,1206.577,1208.219,1209.922,1211.016,1212.841,1213.205,1213.205,1215.638,1218.192,1219.043,1222.327,1222.814,1222.327,1223.787,1225.733,1224.76,1228.408,1228.895,1000,1231.084,1234.733,1000,1243.976,1253.949,1000,1000,1000,1000,1000,1000,1000,1000,1000,1000,1000,1000,1000,1000,1000,1000,1000,1000,1000,1000,1000,1000,1000,1000,1000,1000,1000,1000,1000,1000,1000,1000,1187.3,1175.137,1174.408,1178.543,1000,1000,1000,1000,1000,1000,1000,1000,1000,1000,1000,1000,1000,1000,1293.355,1300.166,1291.409,1293.355,1000,1000,1000,1000,1000,1000,1000,1000,1000,1000,1000,1000,1000,1000,1211.488,1000,1000,1000,1000,1000,1000,1000,1000,1000,1000,1000,1000,1000,1000,1000,1000,1000,1000,1000,1000,1000,1000,1000,1000,1000,1000,1000,1000,1000,1000,1000,1000,1000,1000,1000,1000,1000,1000,1000,1000,1000,1000,1000,1000,1000,1000,1000,1000,1000,1000,1000,1000,1000,1000,1000,1000,1000,1000,1000,1000,1000,1000,1000,1000,1000,1000,1000,1130.426,1128.89,1232.543,1233.516,1226.219,1216.489,1227.192,1226.219,1205.786,1197.03,1187.786,1000,1000,1000,1000,1199.462,1201.408,1199.462,1195.57,1200.435,1000,1000,1000,1000,1000,1000,1000,1000,1000,1000,1000,1000,1000,1000,1000,1000,1000,1000,1000,1000,1000,1000,1000,1128.662,1240.327,1232.543,1000,1000,1000,1000,1000,1000,1000,1000,1000,1000,1000,1000,1000,1000,1000,1000,1000,1000,1000,1209.747,1210.013,1209.838,1209.747,1210.119,1209.587,1209.093,1208.561,1208.219,1306.49,1295.301,1287.517,1286.544,1279.733,1278.274,1276.328,1276.328,1272.922,1268.544,1268.057,1263.193,1258.328,1255.895,1254.436,1251.03,1251.517,1250.301,1251.03,1251.03,1248.841,1247.382,1242.03,1236.435,1236.435,1235.949,1234.733,1234.733,1236.922,1238.868,1239.598,1237.652,1234.733,1234.733,1230.111,1228.895,1226.949,1228.408,1226.949,1226.219,1225.733,1225.246,1223.787,1220.868,1216.003,1211.746,1210.651,1206.881,1204.813,1206.273,1206.577,1205.665,1206.881,1206.273,1204.813,1204.266,1203.172,1203.172,1198.094,1000,1000,1246.165,1229.138,1219.165,1212.597,1208.705,1204.57,1203.719,1203.232,1202.381,1201.651,1201.165,1199.219,1197.03,1195.205,1194.232,1192.651,1192.347,1192.043,1193.867,1194.84,1000,1202.381,1000,1000,1261.733,1283.625,1282.652,1281.679,1279.733,1277.787,1271.949,1274.868,1273.895,1277.787,1268.057,1269.031,1266.111,1267.084,1267.084,1266.111,1265.625,1265.625,1258.328,1248.598,1241.787,1241.787,1238.868,1233.76,1232.3,1231.084,1224.03,1220.381,1216.489,1216.003,1212.597,1212.111,1209.192,1209.192,1205.908,1204.084,1199.948,1000,1000,1000,1000,1000,1000
1193.624,1196.3,1194.84,1196.3,1197.759,1200.8,1203.232,1205.422,1209.192,1211.138,1212.597,1211.138,1213.327,1215.273,1214.786,1221.111,1222.327,1218.678,1221.111,1224.03,1224.03,1230.354,1235.219,1231.814,1229.138,1219.895,1207.246,1000,1000,1000,1000,1000,1000,1000,1000,1000,1000,1000,1000,1000,1000,1000,1000,1000,1000,1000,1000,1000,1000,1000,1000,1000,1194.095,1000,1194.179,1194.643,1194.856,1195.296,1195.92,1195.783,1195.783,1197.577,1198.094,1198.276,1199.219,1199.462,1199.219,1200.07,1201.408,1202.624,1205.117,1205.665,1206.273,1207.854,1209.557,1210.651,1213.57,1214.422,1214.422,1000,1000,1000,1000,1000,1000,1000,1000,1000,1000,1000,1000,1000,1000,1000,1000,1000,1000,1000,1000,1000,1119.176,1121.045,1121.045,1122.201,1124.177,1000,1000,1000,1000,1000,1000,1000,1000,1000,1000,1000,1000,1000,1000,1000,1000,1000,1187.3,1180.002,1178.056,1180.975,1196.057,1000,1000,1000,1000,1000,1000,1000,1000,1000,1000,1000,1000,1000,1279.733,1291.409,1283.625,1282.652,1281.679,1000,1000,1000,1000,1000,1000,1000,1000,1000,1000,1000,1000,1000,1209.427,1208.812,1000,1000,1000,1000,1000,1000,1000,1000,1000,1000,1000,1000,1000,1000,1000,1000,1000,1000,1000,1000,1000,1000,1000,1000,1000,1000,1000,1000,1000,1000,1000,1000,1000,1000,1269.031,1269.517,1000,1000,1156.651,1000,1000,1000,1000,1000,1000,1000,1000,1000,1000,1000,1000,1000,1000,1000,1000,1000,1000,1000,1000,1000,1000,1000,1000,1000,1000,1000,1000,1000,1228.165,1000,1234.49,1000,1000,1000,1238.381,1000,1192.165,1000,1000,1000,1000,1000,1198.003,1193.138,1185.354,1195.57,1000,1000,1000,1000,1000,1000,1000,1000,1000,1000,1000,1000,1000,1000,1000,1000,1000,1000,1000,1000,1000,1000,1000,1000,1000,1000,1000,1000,1000,1000,1000,1000,1000,1000,1000,1000,1000,1000,1000,1000,1000,1000,1000,1000,1000,1000,1000,1210.636,1210.21,1209.504,1208.971,1208.523,1306.49,1294.328,1284.598,1269.517,1257.355,1256.868,1254.436,1254.436,1252.976,1254.436,1252.976,1247.382,1242.03,1242.03,1238.868,1236.922,1236.922,1238.381,1238.381,1236.922,1237.652,1238.381,1235.949,1232.787,1229.625,1224.273,1222.814,1221.841,1221.354,1221.841,1223.787,1225.733,1224.76,1223.3,1220.016,1218.678,1215.638,1215.273,1213.57,1214.786,1215.273,1215.273,1214.786,1214.057,1213.57,1210.651,1207.489,1204.266,1203.719,1200.922,1199.827,1200.253,1200.07,1199.462,1199.827,1000,1198.854,1199.036,1197.759,1197.242,1194.552,1192.651,1258.328,1242.273,1224.76,1212.597,1206.395,1202.867,1198.854,1198.854,1198.124,1196.665,1194.84,1194.597,1192.651,1191.739,1192.347,1192.955,1191.739,1192.043,1191.496,1000,1195.57,1000,1000,1000,1240.814,1000,1264.652,1264.652,1261.733,1260.274,1253.463,1244.706,1246.165,1245.679,1248.598,1246.165,1245.679,1247.138,1247.625,1247.138,1243.733,1243.246,1240.814,1235.219,1228.408,1225.246,1224.76,1221.597,1218.678,1216.003,1213.327,1209.192,1205.422,1203.232,1202.381,1202.381,1201.651,1200.435,1198.854,1195.935,1193.259,1189.307,1185.597,1184.654,1183.165,1000,1000,1000
1187.117,1189.002,1188.516,1190.644,1191.192,1192.955,1195.935,1197.759,1199.948,1200.8,1203.232,1201.165,1201.165,1202.867,1202.381,1204.57,1205.908,1204.084,1000,1000,1000,1217.462,1222.814,1218.192,1217.462,1211.138,1203.232,1199.219,1000,1000,1000,1000,1000,1000,1000,1000,1000,1000,1000,1000,1000,1000,1000,1000,1000,1000,1000,1000,1000,1000,1000,1000,1000,1192.765,1192.879,1193.107,1193.107,1193.404,1194.095,1194.179,1194.354,1195.296,1195.661,1195.54,1196.193,1196.057,1196.33,1000,1000,1199.219,1201.651,1202.381,1203.172,1204.813,1207.246,1205.361,1208.219,1208.827,1210.286,1000,1000,1000,1000,1000,1000,1000,1000,1000,1000,1000,1000,1000,1000,1000,1000,1000,1000,1000,1118.552,1119.282,1120.741,1123.326,1123.752,1125.758,1129.468,1130.684,1000,1000,1000,1000,1000,1000,1000,1000,1000,1000,1000,1000,1000,1000,1000,1000,1187.786,1181.462,1178.543,1183.894,1206.759,1000,1000,1000,1000,1000,1000,1000,1000,1000,1000,1000,1000,1000,1000,1270.49,1263.679,1265.625,1265.625,1264.652,1000,1000,1000,1000,1000,1000,1000,1000,1000,1000,1000,1000,1000,1000,1000,1000,1000,1000,1000,1000,1000,1000,1000,1000,1000,1000,1000,1000,1000,1000,1000,1000,1000,1000,1000,1000,1000,1000,1000,1000,1000,1000,1000,1000,1000,1000,1269.517,1264.409,1000,1000,1000,1259.909,1000,1000,1000,1000,1000,1000,1000,1000,1000,1000,1000,1000,1000,1000,1000,1000,1000,1000,1000,1000,1000,1000,1000,1000,1000,1000,1000,1000,1000,1000,1000,1000,1000,1000,1000,1000,1000,1000,1000,1000,1000,1000,1000,1000,1000,1000,1000,1000,1000,1000,1000,1000,1000,1000,1000,1000,1000,1000,1000,1000,1000,1000,1000,1000,1391.786,1000,1000,1000,1000,1000,1000,1000,1000,1000,1000,1000,1000,1000,1000,1000,1000,1000,1000,1000,1000,1000,1000,1000,1000,1000,1000,1000,1000,1000,1000,1217.705,1000,1211.351,1209.154,1208.409,1287.517,1273.895,1263.193,1250.301,1238.868,1236.435,1232.787,1232.3,1231.814,1235.219,1235.219,1234.733,1229.625,1228.895,1225.733,1223.3,1221.841,1224.273,1223.3,1222.327,1222.814,1221.354,1218.192,1216.854,1214.786,1212.476,1212.111,1211.746,1211.381,1213.205,1212.476,1214.786,1212.841,1211.016,1207.246,1205.969,1203.172,1203.415,1202.381,1203.172,1203.415,1203.962,1203.962,1203.962,1203.962,1202.381,1200.496,1198.641,1198.094,1197.242,1196.786,1196.786,1196.634,1196.057,1195.783,1000,1195.175,1195.661,1194.962,1194.962,1193.464,1298.707,1254.922,1240.327,1221.111,1210.165,1201.651,1199.219,1195.57,1194.597,1192.955,1191.739,1189.55,1188.516,1186.631,1186.631,1187.3,1188.759,1189.002,1191.739,1191.192,1192.651,1200.435,1208.219,1217.462,1231.814,1234.49,1237.895,1246.165,1244.706,1241.787,1240.327,1234.49,1229.868,1228.408,1227.679,1230.354,1226.462,1225.976,1226.462,1227.192,1225.246,1222.814,1219.165,1219.165,1212.597,1211.138,1209.678,1212.111,1208.705,1208.705,1205.422,1204.57,1200.8,1197.394,1194.597,1193.624,1192.043,1191.496,1191.192,1189.002,1186.874,1184.654,1182.708,1181.127,1180.314,1000,1000,1000,1000
1183.165,1000,1183.773,1184.654,1184.472,1185.232,1187.543,1188.273,1190.097,1191.496,1194.232,1193.624,1193.867,1192.651,1192.955,1193.259,1193.867,1194.597,1000,1000,1000,1206.395,1210.651,1207.246,1207.246,1204.084,1199.584,1195.935,1194.232,1000,1000,1000,1000,1000,1000,1000,1000,1000,1000,1000,1000,1000,1000,1000,1000,1000,1000,1000,1000,1000,1000,1000,1291.896,1289.463,1288.49,1291.896,1289.463,1293.842,1192.727,1192.917,1193.107,1193.791,1194.27,1194.019,1000,1000,1195.418,1000,1197.242,1198.459,1200.496,1201.408,1202.138,1203.962,1205.665,1000,1000,1000,1000,1000,1000,1000,1000,1000,1000,1000,1000,1000,1000,1000,1000,1000,1000,1000,1000,1117.306,1116.948,1118.043,1118.856,1118.963,1120.437,1123.143,1124.36,1126.731,1134.758,1000,1000,1000,1000,1000,1000,1000,1000,1000,1000,1000,1000,1000,1000,1000,1000,1000,1175.624,1172.948,1169.543,1176.597,1000,1000,1000,1000,1000,1000,1000,1000,1000,1000,1000,1000,1000,1000,1000,1000,1264.652,1263.193,1262.22,1000,1000,1000,1000,1000,1000,1000,1000,1000,1000,1000,1000,1000,1000,1000,1000,1000,1000,1000,1000,1000,1000,1000,1000,1000,1000,1154.705,1000,1149.84,1000,1000,1000,1000,1000,1000,1000,1000,1000,1000,1000,1000,1000,1000,1000,1000,1000,1000,1000,1000,1000,1000,1000,1000,1000,1000,1000,1000,1000,1000,1000,1000,1000,1000,1000,1000,1000,1000,1000,1000,1000,1000,1000,1000,1000,1000,1000,1000,1000,1000,1000,1000,1000,1000,1000,1000,1000,1000,1000,1000,1000,1000,1000,1000,1000,1000,1000,1000,1000,1000,1000,1000,1000,1000,1000,1000,1000,1000,1000,1000,1000,1000,1000,1000,1000,1000,1000,1000,1000,1000,1000,1000,1000,1000,1000,1000,1000,1000,1000,1145.948,1000,1000,1000,1000,1000,1000,1000,1000,1000,1000,1000,1000,1000,1000,1000,1000,1000,1000,1000,1000,1000,1000,1000,1000,1000,1000,1249.571,1235.949,1228.895,1228.895,1225.246,1223.3,1222.327,1222.327,1220.503,1220.503,1215.638,1214.786,1213.57,1211.016,1209.922,1211.381,1211.016,1209.922,1209.922,1209.192,1207.489,1205.969,1205.361,1203.962,1204.266,1204.266,1204.266,1204.266,1203.719,1203.962,1202.624,1201.651,1200.496,1199.644,1198.854,1198.276,1197.759,1197.577,1197.577,1197.09,1197.577,1197.911,1197.394,1196.786,1196.786,1195.661,1195.175,1194.962,1194.962,1194.354,1194.354,1194.179,1194.019,1193.464,1193.297,1193.404,1193.153,1192.879,1297.734,1279.733,1253.463,1237.408,1225.976,1211.138,1200.435,1197.759,1194.84,1191.739,1190.644,1189.793,1187.543,1186.205,1185.232,1185.019,1186.023,1188.029,1189.307,1193.259,1193.624,1195.205,1205.422,1213.327,1218.678,1225.246,1227.192,1227.679,1231.814,1229.138,1227.679,1222.814,1218.678,1214.3,1213.327,1212.597,1215.273,1211.624,1211.138,1210.651,1210.651,1209.192,1206.395,1203.719,1202.381,1198.124,1198.124,1199.584,1199.584,1197.759,1196.665,1194.597,1192.955,1192.043,1189.002,1187.3,1186.205,1185.597,1185.232,1185.232,1184.472,1183.469,1181.796,1181.021,1180.025,1179.371,1179.067,1000,1000,1000
1180.17,1180.474,1180.823,1181.34,1000,1181.796,1182.86,1183.773,1184.472,1185.597,1186.874,1187.3,1186.631,1186.448,1186.205,1187.117,1187.117,1188.516,1190.644,1000,1000,1198.124,1200.435,1198.854,1198.124,1196.3,1193.867,1193.259,1192.347,1000,1000,1000,1000,1000,1000,1000,1000,1000,1000,1000,1000,1000,1000,1000,1000,1000,1000,1000,1000,1000,1000,1000,1279.733,1279.733,1276.814,1281.679,1277.787,1282.652,1294.815,1298.707,1300.652,1193.069,1193.244,1000,1000,1000,1000,1000,1000,1000,1000,1000,1000,1000,1000,1000,1000,1000,1000,1000,1000,1000,1000,1000,1000,1000,1000,1000,1000,1000,1000,1000,1000,1117.306,1117.754,1117.26,1117.632,1000,1000,1120.741,1122.566,1000,1128.069,1000,1000,1000,1000,1000,1000,1000,1000,1000,1000,1000,1000,1000,1000,1000,1000,1000,1000,1000,1165.407,1164.191,1160.543,1166.867,1000,1000,1000,1000,1000,1000,1000,1000,1000,1000,1000,1000,1000,1000,1000,1000,1000,1000,1000,1000,1000,1000,1000,1000,1000,1000,1000,1000,1000,1000,1000,1000,1000,1000,1000,1000,1000,1000,1000,1000,1000,1000,1000,1000,1000,1164.191,1170.759,1161.029,1161.029,1000,1000,1196.057,1000,1000,1000,1000,1000,1000,1000,1000,1000,1000,1000,1000,1000,1000,1000,1000,1000,1000,1000,1000,1000,1000,1000,1000,1000,1000,1000,1000,1000,1000,1000,1000,1000,1000,1000,1000,1000,1000,1000,1000,1000,1000,1000,1000,1000,1000,1000,1000,1000,1000,1000,1000,1000,1000,1000,1000,1000,1000,1000,1000,1000,1000,1000,1000,1000,1000,1000,1000,1000,1000,1000,1000,1000,1000,1000,1000,1000,1000,1000,1000,1000,1000,1000,1000,1000,1000,1000,1000,1000,1000,1000,1140.596,1000,1135.853,1132.569,1134.029,1130.38,1132.569,1128.069,1128.069,1127.279,1129.225,1126.731,1126.488,1126.002,1125.515,1122.201,1122.201,1121.198,1121.866,1000,1121.349,1119.89,1119.768,1117.511,1229.625,1000,1000,1000,1000,1000,1000,1000,1000,1223.3,1221.354,1218.192,1213.205,1212.111,1210.651,1210.286,1210.286,1208.462,1207.854,1206.881,1203.962,1203.415,1203.719,1204.266,1202.928,1203.415,1202.381,1201.408,1199.644,1199.036,1198.094,1198.854,1198.094,1198.641,1198.641,1198.276,1197.759,1197.759,1196.33,1195.92,1195.296,1195.068,1194.552,1194.354,1194.095,1194.27,1193.936,1194.095,1194.019,1193.936,1193.586,1193.647,1193.244,1193.35,1193.198,1193.244,1193.031,1193.031,1192.955,1192.689,1297.734,1294.815,1292.869,1286.544,1280.706,1278.76,1264.652,1247.138,1236.679,1229.138,1210.651,1201.165,1195.57,1192.955,1189.55,1188.516,1188.273,1187.117,1184.837,1183.955,1183.469,1183.773,1183.621,1187.3,1191.496,1194.84,1194.84,1206.881,1209.192,1213.327,1214.3,1217.462,1217.462,1219.165,1216.976,1216.003,1211.138,1206.881,1202.867,1202.867,1201.651,1202.867,1200.435,1201.165,1198.489,1198.489,1197.759,1195.935,1193.624,1193.259,1190.34,1189.793,1190.097,1189.002,1187.117,1187.3,1186.205,1186.205,1186.874,1185.84,1184.837,1183.955,1183.773,1182.298,1182.572,1182.039,1181.447,1180.025,1179.843,1179.257,1000,1269.031,1000,1000,1000
1179.143,1179.485,1179.782,1179.729,1179.729,1180.025,1180.17,1180.557,1180.823,1181.34,1181.675,1182.572,1182.039,1182.298,1182.161,1182.86,1183.012,1183.621,1185.019,1187.543,1188.029,1189.55,1192.043,1191.739,1190.888,1190.644,1189.307,1188.759,1187.786,1186.874,1184.472,1000,1000,1000,1000,1000,1143.652,1000,1000,1000,1000,1000,1000,1000,1000,1000,1000,1000,1000,1000,1000,1000,1000,1000,1000,1269.031,1266.111,1271.949,1282.652,1000,1000,1000,1000,1000,1000,1000,1000,1000,1000,1000,1000,1000,1000,1000,1000,1000,1000,1000,1000,1000,1000,1000,1000,1000,1000,1000,1000,1000,1000,1000,1000,1000,1000,1000,1000,1000,1000,1000,1000,1000,1000,1000,1000,1000,1000,1000,1000,1000,1000,1000,1000,1000,1000,1000,1000,1000,1000,1000,1000,1000,1162.975,1162.489,1161.029,1159.326,1000,1000,1000,1000,1000,1000,1000,1000,1000,1000,1000,1000,1000,1000,1000,1000,1000,1000,1000,1000,1000,1000,1000,1000,1000,1000,1000,1000,1000,1000,1000,1000,1000,1000,1000,1000,1000,1000,1000,1000,1000,1000,1000,1000,1000,1000,1000,1000,1179.516,1168.083,1167.597,1175.137,1183.894,1194.597,1000,1000,1000,1000,1000,1000,1000,1000,1000,1000,1192.651,1000,1000,1000,1000,1000,1000,1000,1000,1000,1000,1000,1000,1000,1000,1000,1000,1000,1000,1000,1000,1000,1000,1000,1000,1000,1000,1000,1000,1000,1000,1000,1000,1000,1000,1000,1000,1000,1000,1000,1000,1000,1000,1000,1000,1000,1000,1000,1000,1000,1000,1000,1000,1000,1000,1000,1000,1000,1000,1000,1000,1000,1000,1000,1000,1000,1000,1000,1000,1000,1000,1147.894,1000,1000,1000,1000,1000,1000,1000,1140.961,1134.029,1137.677,1000,1000,1128.373,1132.569,1000,1000,1127.826,1127.279,1125.758,1125.029,1123.752,1124.177,1123.934,1122.201,1120.589,1120.741,1120.027,1120.741,1120.437,1120.893,1120.027,1120.301,1118.75,1117.823,1117.138,1000,1000,1000,1000,1000,1000,1000,1000,1000,1216.489,1211.016,1208.462,1206.881,1206.273,1205.969,1205.117,1203.719,1201.895,1199.219,1198.641,1198.641,1198.641,1197.911,1198.276,1197.911,1196.938,1196.057,1195.54,1195.296,1195.418,1194.856,1195.068,1195.068,1194.552,1194.095,1194.179,1193.404,1193.404,1193.153,1193.107,1192.917,1192.879,1192.651,1192.689,1300.652,1303.571,1302.599,1301.625,1296.76,1300.652,1293.842,1295.788,1295.788,1296.76,1291.896,1291.896,1288.49,1282.652,1276.814,1273.895,1270.976,1265.625,1259.301,1254.922,1243.733,1234.49,1225.976,1219.895,1207.246,1201.165,1193.624,1191.739,1188.759,1189.307,1187.786,1187.543,1184.837,1183.773,1182.86,1184.137,1184.137,1188.273,1000,1197.03,1000,1201.651,1203.719,1204.57,1205.422,1208.219,1208.219,1206.395,1205.908,1203.232,1199.219,1196.3,1195.935,1195.935,1194.232,1195.57,1193.867,1193.624,1190.888,1189.793,1188.273,1186.205,1185.019,1185.232,1184.472,1183.621,1183.621,1182.86,1182.435,1182.435,1182.161,1182.039,1182.298,1180.93,1180.474,1180.17,1180.094,1179.675,1180.17,1180.094,1179.903,1179.105,1288.977,1273.895,1259.301,1245.679,1000,1000,1000
1269.031,1276.814,1000,1284.112,1287.031,1179.105,1179.257,1179.371,1179.409,1179.675,1179.782,1180.238,1180.17,1180.398,1180.398,1180.823,1180.93,1180.93,1181.447,1182.708,1182.86,1183.773,1185.597,1185.84,1185.84,1186.205,1185.84,1186.023,1185.84,1185.84,1184.29,1000,1000,1000,1000,1000,1000,1000,1000,1000,1000,1000,1000,1000,1000,1000,1000,1000,1000,1000,1000,1000,1000,1000,1000,1000,1000,1000,1000,1000,1000,1000,1000,1000,1000,1000,1000,1000,1000,1000,1000,1000,1000,1000,1000,1000,1000,1000,1000,1000,1000,1000,1000,1000,1000,1000,1000,1000,1000,1000,1000,1000,1000,1000,1000,1000,1000,1000,1000,1000,1000,1000,1000,1000,1000,1000,1000,1000,1000,1000,1000,1000,1000,1000,1000,1000,1000,1000,1158.11,1160.056,1155.921,1158.11,1160.056,1000,1000,1000,1000,1000,1000,1000,1000,1000,1000,1000,1000,1000,1000,1000,1000,1000,1000,1000,1000,1000,1000,1000,1000,1000,1000,1000,1000,1000,1000,1000,1000,1000,1000,1000,1000,1000,1000,1000,1000,1000,1000,1000,1000,1000,1000,1000,1000,1000,1180.975,1172.218,1170.029,1176.597,1000,1000,1000,1000,1000,1000,1000,1000,1000,1000,1000,1186.083,1188.273,1000,1000,1000,1000,1000,1000,1000,1000,1000,1000,1000,1000,1000,1000,1000,1000,1000,1000,1000,1000,1000,1000,1000,1000,1000,1000,1000,1000,1000,1000,1000,1000,1000,1000,1000,1000,1000,1000,1000,1000,1000,1000,1000,1000,1000,1000,1000,1000,1000,1000,1000,1000,1000,1000,1000,1000,1000,1000,1000,1000,1000,1000,1000,1000,1000,1000,1000,1000,1000,1000,1149.84,1145.948,1147.894,1000,1000,1000,1000,1000,1000,1000,1141.813,1000,1000,1000,1000,1000,1136.218,1131.353,1000,1126.245,1000,1121.866,1122.018,1121.866,1120.741,1120.893,1121.349,1121.045,1122.961,1122.961,1123.752,1122.566,1122.566,1120.164,1119.069,1117.823,1000,1000,1000,1000,1000,1000,1000,1000,1000,1000,1000,1000,1200.496,1199.644,1200.922,1201.165,1200.739,1198.641,1196.33,1195.54,1194.962,1194.749,1194.643,1194.643,1194.27,1193.936,1193.464,1193.297,1193.153,1193.244,1193.069,1193.153,1193.031,1192.955,1192.727,1192.765,1300.652,1301.625,1293.842,1292.869,1287.517,1282.652,1278.76,1281.679,1274.868,1274.868,1276.814,1274.868,1271.949,1270.976,1268.057,1270.003,1270.976,1270.976,1270.976,1270.976,1265.625,1259.301,1254.436,1251.03,1247.138,1245.679,1240.327,1237.895,1233.03,1226.462,1218.678,1216.489,1209.678,1206.395,1200.435,1000,1000,1000,1000,1192.955,1187.543,1185.84,1184.29,1185.415,1184.137,1188.029,1192.955,1193.867,1193.259,1195.57,1196.665,1197.394,1197.03,1198.124,1198.489,1196.665,1194.84,1193.624,1191.496,1190.34,1190.34,1190.34,1188.516,1189.307,1187.543,1187.117,1185.415,1184.29,1182.86,1181.447,1181.34,1181.447,1181.34,1180.732,1180.732,1179.964,1179.843,1179.843,1179.903,1179.675,1179.675,1179.219,1179.181,1287.031,1288.004,1282.166,1285.085,1285.085,1179.067,1274.868,1271.949,1261.247,1000,1000,1000,1000,1000
1243.733,1247.625,1000,1253.463,1257.355,1263.193,1268.057,1272.922,1275.841,1284.112,1285.085,1179.029,1179.067,1179.143,1179.181,1179.447,1179.577,1179.675,1179.729,1180.094,1180.094,1180.17,1180.93,1181.34,1181.675,1182.161,1182.298,1182.572,1182.86,1183.165,1183.012,1000,1000,1000,1000,1000,1000,1000,1000,1000,1000,1000,1000,1000,1000,1000,1000,1000,1000,1000,1000,1000,1000,1000,1000,1000,1000,1000,1000,1000,1000,1000,1000,1000,1000,1000,1000,1000,1000,1000,1000,1000,1000,1000,1000,1000,1000,1000,1000,1000,1000,1000,1000,1000,1000,1000,1000,1000,1000,1000,1000,1000,1000,1000,1000,1000,1000,1000,1000,1000,1000,1256.868,1262.706,1000,1000,1000,1000,1000,1000,1000,1000,1000,1000,1000,1000,1000,1000,1000,1155.921,1155.921,1153.002,1154.218,1155.921,1000,1000,1000,1000,1000,1000,1000,1000,1000,1000,1000,1000,1000,1000,1000,1000,1000,1000,1000,1000,1000,1000,1000,1000,1000,1000,1000,1000,1000,1000,1000,1000,1000,1000,1000,1000,1000,1000,1000,1000,1000,1000,1000,1000,1000,1000,1000,1000,1000,1175.624,1168.813,1171.489,1177.083,1000,1000,1000,1000,1000,1000,1000,1000,1000,1000,1000,1184.624,1185.354,1177.083,1000,1000,1000,1000,1000,1000,1000,1000,1000,1000,1000,1000,1000,1000,1000,1000,1000,1000,1000,1000,1000,1000,1000,1000,1000,1000,1000,1000,1000,1000,1000,1000,1000,1000,1000,1000,1000,1000,1000,1000,1000,1000,1000,1000,1000,1000,1000,1000,1000,1000,1000,1000,1000,1000,1000,1177.813,1180.489,1181.219,1177.813,1179.273,1177.083,1000,1000,1000,1000,1000,1000,1000,1000,1000,1000,1000,1000,1000,1000,1000,1000,1000,1000,1000,1000,1000,1000,1000,1000,1000,1134.758,1131.353,1127.522,1000,1122.201,1000,1000,1000,1000,1000,1000,1000,1000,1000,1000,1125.272,1121.198,1120.741,1118.659,1118.126,1000,1219.895,1217.462,1212.597,1198.975,1000,1000,1000,1000,1000,1000,1000,1000,1000,1197.394,1197.759,1196.057,1194.643,1194.019,1193.586,1193.297,1193.153,1192.955,1192.803,1192.689,1296.76,1292.869,1293.842,1292.869,1286.544,1288.49,1284.598,1283.625,1276.814,1279.733,1275.841,1278.76,1272.922,1274.868,1270.003,1266.111,1260.274,1261.733,1255.895,1252.003,1252.49,1251.03,1247.138,1247.625,1245.679,1247.625,1249.571,1250.057,1247.625,1249.571,1243.246,1239.354,1234.49,1233.76,1229.868,1229.868,1225.246,1224.76,1219.165,1216.976,1210.651,1210.651,1204.57,1203.719,1199.219,1000,1000,1000,1000,1000,1191.739,1190.34,1187.786,1189.307,1186.631,1188.516,1189.793,1191.496,1189.793,1190.644,1190.644,1190.644,1189.002,1190.097,1190.644,1188.759,1187.543,1187.3,1185.232,1184.29,1184.472,1184.137,1183.012,1183.621,1183.012,1182.708,1181.918,1181.021,1180.238,1179.622,1179.485,1179.577,1179.622,1179.447,1179.333,1289.95,1287.031,1288.004,1285.085,1283.139,1278.274,1271.949,1269.031,1265.139,1263.193,1259.301,1257.355,1257.355,1264.166,1259.301,1255.409,1000,1000,1000,1000,1000,1000
1224.273,1229.625,1234.003,1237.408,1238.868,1247.625,1247.625,1257.355,1259.301,1265.139,1262.22,1268.057,1268.057,1268.057,1271.949,1280.22,1285.085,1287.031,1288.977,1179.181,1179.181,1179.181,1179.447,1179.843,1179.903,1180.17,1180.238,1180.732,1181.34,1000,1000,1000,1000,1000,1000,1000,1000,1000,1000,1000,1000,1000,1000,1000,1000,1000,1000,1000,1000,1000,1000,1000,1000,1000,1000,1000,1000,1000,1000,1000,1000,1000,1000,1000,1000,1000,1000,1000,1000,1000,1000,1000,1000,1000,1000,1000,1000,1000,1000,1000,1000,1000,1000,1000,1000,1000,1000,1000,1000,1000,1000,1000,1000,1000,1000,1000,1000,1000,1235.219,1239.354,1000,1000,1000,1000,1000,1000,1000,1000,1000,1000,1000,1000,1000,1000,1000,1000,1000,1156.894,1153.732,1153.002,1153.732,1155.191,1160.056,1000,1000,1000,1000,1000,1000,1000,1000,1000,1000,1000,1000,1000,1000,1000,1000,1000,1000,1000,1000,1000,1000,1000,1000,1000,1000,1000,1000,1000,1000,1000,1000,1000,1000,1000,1000,1000,1000,1000,1000,1000,1000,1000,1000,1000,1000,1000,1000,1000,1172.948,1166.867,1170.759,1000,1000,1000,1000,1000,1000,1000,1000,1000,1000,1174.164,1179.273,1188.759,1185.354,1000,1000,1000,1000,1000,1000,1000,1000,1000,1000,1000,1000,1000,1000,1000,1000,1000,1000,1000,1000,1000,1000,1000,1000,1000,1000,1000,1000,1000,1000,1000,1000,1000,1000,1000,1000,1000,1000,1000,1000,1000,1000,1000,1000,1000,1000,1000,1000,1000,1000,1000,1000,1000,1000,1000,1000,1169.786,1171.732,1172.218,1171.002,1171.002,1167.597,1000,1000,1000,1000,1000,1000,1000,1000,1000,1000,1000,1000,1000,1000,1000,1000,1000,1000,1000,1000,1000,1000,1000,1000,1000,1000,1000,1000,1000,1000,1000,1000,1000,1000,1000,1000,1000,1000,1000,1000,1000,1000,1000,1000,1000,1000,1229.625,1218.435,1206.759,1198.975,1193.624,1000,1000,1000,1000,1000,1000,1000,1000,1000,1000,1196.482,1194.27,1193.244,1192.955,1302.599,1295.788,1288.49,1284.598,1281.679,1270.976,1268.057,1268.057,1268.057,1262.706,1266.111,1262.706,1260.274,1254.922,1256.868,1254.922,1253.463,1246.165,1246.165,1242.273,1238.868,1234.49,1239.354,1235.949,1231.814,1232.3,1234.49,1230.354,1229.868,1228.408,1229.138,1227.192,1227.192,1227.192,1227.679,1224.03,1221.597,1217.462,1215.273,1213.814,1214.3,1212.111,1211.624,1210.651,1209.678,1205.057,1203.232,1200.435,1198.854,1194.84,1195.935,1194.84,1196.665,1000,1000,1188.273,1186.205,1184.837,1186.023,1184.137,1185.019,1186.023,1186.205,1185.597,1185.415,1185.019,1184.472,1183.773,1183.955,1184.472,1183.955,1183.165,1183.012,1182.039,1181.234,1181.34,1180.93,1180.238,1180.398,1180.398,1179.964,1179.843,1179.371,1179.029,1281.193,1276.814,1278.274,1279.247,1274.868,1269.031,1262.22,1258.328,1260.274,1260.274,1256.382,1255.409,1253.463,1249.084,1248.111,1243.246,1243.733,1237.408,1235.949,1000,1000,1000,1000,1000,1000,1000,1000,1000
1204.57,1207.976,1211.624,1216.733,1219.408,1228.652,1229.625,1238.381,1242.273,1247.625,1244.706,1250.057,1250.057,1249.084,1252.003,1260.274,1265.139,1270.976,1270.003,1280.22,1000,1000,1000,1000,1000,1000,1179.333,1000,1000,1000,1000,1000,1000,1000,1000,1000,1000,1000,1000,1000,1000,1000,1000,1000,1000,1000,1000,1000,1000,1000,1000,1000,1000,1000,1000,1000,1000,1000,1000,1000,1000,1000,1000,1000,1000,1000,1000,1000,1000,1000,1000,1000,1000,1000,1000,1000,1000,1000,1000,1000,1000,1000,1000,1000,1000,1000,1000,1000,1000,1000,1000,1000,1000,1000,1000,1000,1000,1223.3,1228.408,1228.408,1231.814,1233.76,1000,1000,1000,1248.598,1248.598,1255.895,1000,1000,1000,1000,1000,1257.355,1000,1000,1000,1153.002,1152.516,1152.516,1153.002,1154.705,1159.326,1000,1000,1000,1000,1000,1000,1000,1000,1000,1000,1000,1000,1000,1000,1000,1000,1000,1000,1000,1000,1000,1000,1000,1000,1000,1000,1000,1000,1000,1000,1000,1000,1000,1000,1000,1000,1000,1000,1000,1000,1000,1000,1000,1193.198,1000,1000,1000,1000,1000,1164.921,1161.029,1169.543,1000,1000,1000,1000,1000,1000,1000,1000,1000,1000,1179.759,1184.624,1186.813,1182.435,1000,1000,1000,1000,1000,1000,1000,1000,1000,1000,1000,1000,1000,1000,1000,1000,1000,1000,1000,1000,1000,1000,1000,1000,1000,1000,1000,1000,1000,1000,1000,1000,1000,1000,1000,1000,1000,1000,1000,1000,1000,1000,1000,1000,1000,1000,1000,1000,1000,1000,1000,1000,1000,1000,1000,1000,1171.002,1171.002,1172.218,1170.516,1169.299,1166.867,1000,1000,1000,1000,1000,1000,1000,1000,1000,1000,1000,1000,1000,1000,1000,1000,1000,1000,1000,1000,1000,1000,1000,1000,1000,1000,1000,1000,1000,1000,1000,1000,1000,1000,1257.355,1000,1000,1000,1000,1000,1000,1000,1000,1000,1000,1000,1223.787,1207.732,1192.651,1187.3,1180.489,1000,1000,1000,1000,1000,1000,1000,1000,1000,1000,1000,1000,1192.765,1192.689,1291.896,1284.598,1274.868,1267.084,1262.706,1256.868,1254.436,1254.436,1255.895,1251.03,1250.057,1246.165,1243.246,1237.895,1237.895,1237.408,1233.76,1230.354,1228.408,1226.462,1224.03,1222.814,1223.3,1221.597,1217.462,1217.462,1216.976,1214.786,1213.814,1213.327,1213.327,1213.814,1213.814,1214.786,1214.786,1212.111,1211.138,1207.732,1206.881,1207.246,1207.732,1205.908,1205.422,1204.57,1203.232,1198.854,1196.3,1196.3,1194.232,1192.043,1193.867,1192.043,1192.043,1188.759,1186.631,1184.837,1184.29,1183.012,1183.621,1182.86,1182.435,1183.012,1183.165,1182.708,1181.796,1181.796,1181.234,1180.823,1180.648,1180.648,1180.314,1179.843,1179.729,1179.622,1179.531,1179.577,1179.371,1179.257,1179.181,1179.143,1284.112,1288.004,1273.895,1262.22,1260.274,1258.328,1257.355,1260.274,1257.355,1250.057,1243.246,1239.841,1238.868,1238.381,1234.976,1234.976,1228.165,1225.733,1225.246,1220.868,1218.678,1214.786,1000,1000,1000,1000,1000,1000,1000,1000,1000,1000
1194.597,1198.003,1000,1203.354,1205.057,1209.192,1211.624,1216.733,1223.787,1232.057,1232.057,1237.408,1238.381,1000,1000,1000,1000,1000,1252.49,1000,1000,1000,1000,1000,1000,1000,1000,1000,1000,1000,1000,1000,1108.313,1109.339,1110.571,1111.772,1113.839,1000,1000,1000,1000,1000,1000,1000,1000,1000,1000,1000,1000,1000,1000,1000,1000,1000,1000,1000,1000,1000,1000,1000,1000,1000,1000,1000,1000,1000,1000,1000,1000,1000,1000,1000,1000,1000,1000,1000,1000,1000,1000,1000,1000,1000,1000,1000,1000,1000,1000,1000,1000,1000,1000,1000,1000,1000,1000,1000,1210.651,1213.814,1216.976,1216.976,1000,1000,1000,1000,1000,1233.03,1234.49,1242.273,1000,1000,1252.003,1000,1000,1252.49,1000,1000,1150.326,1147.894,1148.38,1147.894,1148.38,1149.84,1000,1000,1000,1000,1000,1000,1000,1000,1000,1000,1000,1000,1000,1000,1000,1000,1000,1000,1000,1000,1000,1000,1000,1000,1000,1000,1000,1000,1000,1000,1000,1000,1000,1000,1000,1000,1294.815,1301.625,1000,1000,1000,1000,1000,1000,1303.571,1298.707,1000,1000,1000,1160.543,1158.11,1159.326,1170.759,1000,1000,1000,1000,1000,1000,1000,1000,1000,1000,1000,1000,1000,1000,1000,1000,1000,1000,1000,1000,1000,1000,1000,1000,1000,1000,1000,1000,1000,1000,1000,1000,1000,1000,1000,1000,1000,1000,1000,1000,1000,1000,1000,1000,1000,1000,1000,1000,1000,1000,1000,1000,1000,1000,1000,1000,1000,1000,1000,1000,1000,1000,1000,1000,1000,1000,1000,1000,1000,1000,1171.002,1169.299,1169.786,1168.57,1166.867,1164.678,1158.11,1000,1000,1000,1000,1000,1000,1000,1000,1000,1000,1000,1000,1000,1000,1000,1000,1000,1000,1000,1000,1000,1000,1000,1000,1000,1000,1000,1000,1000,1000,1267.084,1258.328,1261.733,1260.274,1254.922,1246.165,1243.246,1237.895,1232.3,1227.192,1000,1000,1000,1000,1000,1000,1205.786,1191.678,1190.705,1190.705,1000,1000,1000,1000,1000,1000,1000,1000,1000,1000,1000,1000,1000,1000,1000,1261.733,1248.598,1247.138,1247.138,1240.814,1238.868,1238.868,1237.895,1233.76,1231.814,1231.814,1229.138,1225.246,1225.976,1225.246,1219.165,1215.273,1213.814,1211.138,1209.678,1210.165,1212.111,1210.165,1206.881,1207.246,1205.422,1203.719,1202.867,1202.381,1200.8,1201.651,1200.8,1201.165,1201.165,1200.435,1199.948,1199.219,1199.584,1199.948,1200.8,1199.584,1198.854,1198.489,1198.489,1195.205,1193.259,1192.347,1190.888,1188.759,1189.002,1185.84,1185.415,1183.165,1182.039,1181.796,1181.675,1181.127,1181.127,1180.823,1180.398,1180.557,1180.398,1180.025,1179.531,1179.409,1179.257,1179.219,1179.257,1179.295,1179.181,1289.95,1288.977,1285.085,1283.139,1280.22,1271.949,1265.139,1261.247,1256.382,1251.03,1253.463,1247.625,1242.273,1244.706,1240.814,1243.246,1242.273,1241.3,1234.003,1228.165,1220.868,1221.597,1219.408,1216.733,1220.868,1217.462,1212.841,1211.138,1207.489,1206.273,1201.651,1000,1000,1000,1000,1000,1000,1000,1000,1000,1000
1188.759,1000,1000,1200.192,1200.678,1000,1000,1000,1000,1000,1000,1000,1000,1000,1000,1000,1000,1000,1000,1000,1000,1000,1000,1000,1000,1000,1000,1000,1000,1000,1000,1107.963,1108.093,1108.169,1108.473,1109.552,1110.434,1110.708,1112.471,1000,1000,1000,1000,1000,1000,1000,1000,1000,1000,1000,1000,1000,1000,1000,1000,1000,1000,1000,1000,1000,1150.813,1155.678,1161.759,1174.164,1000,1000,1000,1000,1000,1000,1000,1000,1000,1000,1000,1000,1000,1000,1000,1000,1000,1000,1000,1000,1000,1000,1000,1000,1000,1000,1000,1000,1000,1000,1000,1202.381,1201.165,1203.719,1203.719,1205.057,1207.246,1000,1000,1216.976,1224.76,1226.462,1228.408,1233.76,1237.408,1000,1243.733,1000,1000,1248.598,1000,1000,1146.434,1144.61,1144.61,1144.123,1144.61,1141.448,1000,1000,1000,1000,1000,1000,1000,1000,1000,1000,1000,1000,1000,1000,1000,1000,1000,1000,1000,1000,1000,1000,1000,1000,1000,1000,1000,1225.976,1000,1000,1000,1000,1000,1000,1000,1000,1000,1192.651,1000,1000,1000,1000,1000,1000,1000,1000,1000,1000,1000,1155.191,1153.732,1158.84,1177.083,1000,1000,1000,1146.069,1143.637,1000,1000,1000,1000,1000,1000,1000,1000,1000,1000,1000,1000,1000,1000,1000,1000,1000,1000,1000,1000,1000,1000,1000,1000,1000,1000,1000,1000,1000,1000,1000,1000,1000,1000,1000,1000,1000,1000,1000,1000,1000,1000,1000,1000,1283.625,1286.544,1288.49,1000,1000,1000,1000,1000,1000,1000,1000,1000,1000,1000,1000,1000,1000,1000,1000,1000,1000,1169.299,1167.597,1168.57,1167.597,1165.894,1164.191,1162.002,1000,1000,1000,1000,1000,1000,1000,1000,1000,1000,1000,1000,1000,1000,1000,1000,1000,1000,1000,1000,1000,1000,1000,1000,1000,1000,1000,1000,1000,1000,1254.436,1248.598,1251.03,1247.625,1245.679,1237.408,1234.49,1230.354,1228.408,1223.3,1222.814,1222.327,1210.651,1000,1000,1000,1000,1000,1000,1000,1000,1000,1000,1000,1000,1000,1000,1000,1000,1000,1000,1000,1000,1000,1000,1000,1000,1000,1228.408,1224.76,1223.3,1225.246,1227.679,1222.327,1219.895,1219.895,1215.273,1210.165,1210.651,1208.705,1202.867,1201.651,1200.8,1199.584,1199.219,1199.219,1200.435,1199.584,1196.665,1196.665,1196.3,1195.57,1194.84,1194.84,1194.232,1194.597,1193.259,1192.043,1192.651,1192.955,1192.955,1192.347,1194.597,1194.597,1194.232,1193.624,1192.651,1191.496,1191.192,1187.786,1186.205,1184.472,1183.955,1181.918,1182.161,1181.553,1181.447,1180.238,1180.094,1179.903,1179.729,1179.577,1179.622,1179.485,1179.295,1179.295,1179.219,1288.977,1280.22,1278.274,1275.841,1274.868,1276.814,1274.868,1271.949,1268.057,1267.084,1260.274,1265.139,1264.166,1255.409,1249.084,1248.111,1242.273,1233.516,1234.003,1228.652,1224.273,1225.246,1224.273,1225.246,1224.273,1222.327,1215.516,1211.138,1205.057,1205.543,1205.057,1203.354,1204.57,1205.057,1198.003,1196.543,1192.286,1189.61,1000,1000,1000,1000,1000,1000,1000,1000,1000,1000,1000
1000,1000,1000,1000,1000,1000,1000,1000,1000,1000,1000,1000,1000,1000,1000,1000,1000,1000,1000,1000,1000,1000,1000,1000,1000,1000,1000,1000,1107.53,1107.781,1108.024,1107.781,1107.675,1107.963,1108.397,1109.126,1109.552,1109.795,1000,1000,1000,1000,1000,1000,1000,1000,1000,1000,1000,1000,1000,1000,1000,1000,1000,1000,1000,1000,1137.677,1144.975,1150.813,1159.083,1164.678,1000,1000,1000,1000,1000,1000,1000,1000,1000,1000,1000,1000,1000,1000,1000,1000,1000,1000,1000,1000,1000,1000,1000,1000,1000,1000,1000,1000,1195.57,1000,1000,1000,1198.124,1197.394,1198.854,1198.854,1201.165,1203.719,1208.219,1000,1212.111,1216.489,1216.003,1216.489,1220.381,1000,1000,1231.814,1237.895,1000,1000,1000,1000,1139.745,1138.164,1137.677,1136.218,1135.488,1000,1000,1000,1000,1000,1000,1000,1000,1000,1000,1000,1000,1000,1000,1000,1000,1000,1000,1000,1000,1000,1000,1000,1000,1000,1000,1000,1218.192,1220.381,1000,1000,1000,1000,1000,1000,1000,1000,1000,1000,1000,1000,1000,1000,1000,1000,1000,1000,1000,1000,1155.191,1157.624,1000,1000,1000,1000,1151.056,1000,1155.799,1148.988,1145.34,1000,1000,1000,1000,1000,1000,1000,1000,1000,1000,1000,1000,1000,1265.625,1000,1000,1000,1000,1000,1000,1000,1000,1000,1000,1000,1000,1000,1000,1000,1000,1000,1000,1000,1000,1000,1000,1000,1000,1000,1000,1000,1000,1000,1261.733,1261.247,1000,1000,1000,1000,1000,1000,1000,1000,1000,1000,1000,1000,1000,1000,1000,1000,1000,1000,1000,1000,1164.678,1165.894,1165.894,1163.218,1162.002,1160.543,1150.205,1000,1000,1000,1000,1000,1000,1000,1000,1000,1000,1000,1000,1000,1000,1000,1000,1000,1000,1000,1000,1000,1000,1000,1000,1000,1000,1000,1000,1000,1242.273,1237.895,1239.354,1233.03,1231.084,1223.3,1219.895,1217.462,1217.462,1214.786,1216.003,1214.786,1210.165,1206.395,1000,1000,1000,1000,1000,1000,1000,1000,1000,1000,1000,1000,1000,1000,1000,1000,1000,1000,1000,1000,1000,1000,1000,1000,1000,1000,1214.3,1216.003,1219.895,1216.976,1214.3,1211.624,1207.732,1203.232,1201.651,1198.489,1194.597,1192.955,1192.651,1191.739,1191.739,1192.347,1192.347,1191.496,1190.097,1189.55,1189.002,1189.002,1187.786,1187.543,1187.117,1186.874,1186.205,1186.631,1186.874,1187.543,1187.543,1186.874,1188.029,1188.273,1188.516,1188.273,1187.543,1000,1186.631,1182.86,1181.234,1180.238,1179.843,1179.257,1179.371,1179.409,1179.485,1179.257,1179.143,1179.029,1285.085,1283.139,1282.166,1283.139,1276.814,1274.868,1270.003,1262.22,1254.436,1252.49,1252.49,1253.463,1255.409,1252.49,1248.111,1243.733,1000,1235.949,1239.841,1240.814,1234.003,1228.652,1226.706,1220.868,1213.57,1214.786,1209.192,1207.976,1209.678,1208.705,1208.705,1209.192,1206.273,1201.165,1198.003,1192.773,1190.462,1190.097,1188.394,1190.462,1189.246,1186.813,1185.232,1182.313,1177.57,1000,1000,1172.218,1000,1000,1000,1000,1000,1000,1000,1000
1000,1000,1000,1000,1000,1000,1000,1000,1000,1000,1000,1000,1000,1000,1000,1000,1000,1000,1000,1000,1000,1000,1000,1000,1000,1215.03,1215.03,1220.868,1107.218,1107.53,1107.675,1107.675,1107.447,1107.903,1108.237,1109.552,1110.16,1000,1000,1000,1000,1000,1000,1000,1000,1000,1000,1000,1000,1000,1000,1000,1000,1000,1000,1000,1000,1130.015,1135.731,1139.137,1143.272,1147.164,1153.245,1000,1000,1000,1000,1000,1000,1000,1000,1000,1000,1000,1000,1000,1000,1000,1000,1000,1000,1000,1000,1000,1000,1000,1000,1000,1000,1000,1000,1000,1190.097,1192.955,1192.955,1194.597,1194.232,1195.935,1196.665,1199.219,1199.219,1204.084,1207.732,1207.732,1211.138,1212.597,1209.678,1209.678,1000,1000,1000,1000,1000,1000,1000,1000,1000,1000,1000,1000,1000,1000,1000,1000,1000,1000,1000,1000,1000,1000,1000,1000,1000,1000,1000,1000,1000,1193.259,1196.665,1199.948,1203.232,1202.381,1205.057,1207.732,1207.732,1207.732,1210.165,1210.651,1214.786,1216.976,1218.192,1223.3,1229.138,1000,1000,1000,1000,1000,1000,1000,1000,1000,1000,1000,1000,1199.462,1000,1000,1150.326,1154.705,1156.407,1000,1000,1000,1000,1153.124,1158.597,1000,1000,1151.056,1000,1000,1000,1000,1000,1000,1000,1000,1000,1000,1000,1000,1256.868,1253.463,1250.057,1000,1258.328,1000,1000,1000,1000,1000,1000,1000,1272.922,1275.841,1000,1000,1000,1000,1131.444,1130.228,1000,1000,1000,1000,1000,1000,1000,1000,1000,1000,1000,1000,1245.679,1247.138,1256.868,1000,1000,1000,1000,1000,1000,1000,1000,1000,1000,1000,1000,1000,1000,1000,1000,1000,1000,1000,1168.083,1169.299,1168.083,1164.191,1162.002,1160.056,1152.637,1000,1000,1000,1000,1000,1000,1000,1000,1000,1000,1000,1000,1000,1000,1000,1000,1000,1000,1000,1000,1000,1000,1000,1000,1000,1000,1000,1000,1000,1000,1231.814,1229.138,1223.3,1221.111,1214.3,1211.138,1209.678,1208.705,1206.395,1205.422,1204.084,1200.435,1198.124,1193.867,1000,1000,1000,1000,1000,1186.631,1000,1000,1000,1000,1000,1000,1000,1000,1000,1000,1000,1000,1000,1000,1000,1000,1000,1000,1000,1000,1000,1000,1000,1208.219,1207.732,1202.867,1198.124,1195.57,1192.347,1190.097,1188.273,1188.516,1188.273,1188.516,1188.029,1187.543,1186.631,1185.019,1184.472,1183.773,1184.137,1183.469,1183.621,1183.469,1183.317,1182.572,1182.572,1182.86,1183.012,1182.708,1182.572,1184.137,1183.469,1183.621,1183.773,1183.621,1181.553,1181.127,1179.675,1179.295,1279.247,1272.922,1265.139,1269.031,1275.841,1280.22,1276.814,1273.895,1270.003,1264.166,1263.193,1262.22,1263.193,1256.382,1253.463,1248.111,1240.814,1236.435,1235.949,1235.949,1234.976,1235.949,1230.111,1225.246,1000,1000,1000,1217.462,1218.192,1214.057,1211.138,1211.624,1205.057,1201.651,1203.354,1200.678,1198.489,1200.192,1199.705,1196.543,1195.57,1192.773,1189.246,1186.327,1183.773,1183.043,1181.948,1181.948,1183.408,1181.583,1178.421,1177.874,1174.894,1000,1000,1000,1169.239,1169.391,1170.333,1000,1000,1000,1000,1000,1000
1000,1000,1000,1000,1000,1000,1000,1000,1000,1000,1000,1000,1000,1000,1000,1000,1000,1000,1000,1000,1000,1000,1000,1000,1216.003,1206.759,1204.813,1213.084,1107.066,1107.37,1107.621,1107.903,1107.621,1108.169,1108.647,1000,1000,1000,1000,1000,1000,1000,1000,1000,1000,1000,1000,1000,1000,1000,1000,1000,1000,1000,1000,1000,1000,1123.569,1130.38,1130.867,1135.245,1142.786,1148.38,1000,1000,1000,1000,1000,1000,1000,1000,1000,1000,1000,1000,1000,1000,1000,1000,1000,1000,1000,1000,1000,1000,1000,1000,1000,1000,1000,1000,1189.002,1188.516,1191.496,1190.888,1191.192,1189.793,1191.192,1189.793,1192.347,1191.496,1196.665,1000,1000,1000,1000,1000,1000,1000,1000,1000,1000,1000,1000,1000,1000,1000,1000,1000,1000,1000,1000,1000,1000,1000,1000,1000,1000,1000,1000,1000,1000,1184.472,1186.631,1189.307,1190.644,1192.043,1192.955,1194.597,1198.124,1200.8,1201.165,1202.381,1204.57,1204.57,1204.57,1206.395,1207.246,1209.192,1210.165,1209.678,1214.3,1218.192,1218.192,1221.597,1000,1000,1000,1000,1000,1000,1000,1000,1000,1238.381,1187.3,1160.543,1149.353,1148.38,1155.191,1162.489,1000,1000,1000,1000,1153.124,1000,1000,1000,1000,1000,1000,1000,1000,1000,1000,1000,1000,1000,1000,1000,1000,1243.733,1240.814,1236.679,1238.868,1243.733,1000,1000,1000,1000,1000,1000,1264.652,1000,1259.301,1000,1000,1000,1000,1132.265,1131.444,1131.201,1132.113,1131.839,1000,1000,1000,1000,1000,1000,1000,1000,1000,1235.219,1235.949,1241.787,1000,1000,1000,1000,1000,1000,1000,1000,1000,1000,1000,1000,1000,1000,1000,1000,1000,1000,1000,1000,1170.516,1171.732,1166.38,1159.57,1159.083,1152.637,1147.529,1000,1000,1000,1000,1000,1000,1000,1000,1000,1000,1000,1000,1000,1000,1000,1000,1000,1000,1000,1000,1000,1000,1000,1000,1000,1000,1000,1000,1000,1218.678,1214.786,1210.165,1208.219,1203.232,1202.016,1200.8,1199.948,1198.124,1197.759,1197.03,1194.84,1193.867,1191.739,1000,1000,1000,1000,1185.84,1186.448,1186.023,1185.597,1183.469,1182.435,1181.447,1181.127,1180.314,1000,1000,1000,1000,1000,1000,1000,1000,1000,1000,1000,1000,1000,1000,1000,1000,1000,1000,1196.3,1190.888,1188.759,1186.448,1185.84,1183.621,1184.137,1184.29,1184.137,1183.469,1183.469,1182.435,1181.796,1181.127,1180.823,1180.823,1180.557,1180.398,1180.557,1180.474,1180.094,1180.025,1180.17,1180.17,1180.025,1179.964,1180.93,1180.398,1180.314,1179.903,1179.843,1288.977,1284.112,1272.922,1271.949,1259.301,1256.382,1250.057,1252.003,1254.436,1257.355,1253.463,1251.03,1247.625,1242.273,1240.814,1240.814,1242.273,1236.435,1233.516,1226.706,1220.138,1216.733,1214.786,1215.516,1216.733,1218.192,1214.057,1211.138,1207.489,1000,1203.354,1202.867,1202.867,1198.489,1197.03,1195.57,1192.286,1188.759,1190.462,1189.246,1188.029,1188.394,1188.394,1186.813,1185.597,1183.773,1182.313,1180.246,1176.475,1175.137,1173.921,1174.408,1174.894,1174.164,1171.793,1171.397,1168.95,1000,1000,1000,1167.027,1166.935,1167.931,1167.505,1000,1000,1000,1000,1000
