10506,10759,10506,10247,9226,9229,10254,9993,9743,9743,9994,9996,9994,9989,10505,11012,10506,10511,10504,9991,9993,10248,10248,10248,9996,9996,9997,9988,10252,9992,9732,9733,9990,9990,9992,9987,9986,9991,9223,9226,9222,9217,9728,9740,9778,9786,8234,8725,10244,9984,10240,12288,18944,20224,19968,19968,18945,18177,16642,15107,11780,11268,9984,9999,8966,15877,17415,16389,15108,7685,3844,4103,5129,4874,4106,4874,6924,8716,8201,7432,8712,12040,6158,5652,7185,6423,5911,5919,5923,5922,5915,5910,6166,6936,5910,5909,5908,6420,7187,7185,7187,7188,6421,6164,5908,5908,6163,7187,7443,7443,7444,7445,7445,7445,7701,7957,8469,8724,9233,8721,7951,7951,8207,8462,8462,8463,8977,9232,8720,8977,8726,9249,9761,8803,9119,7587,7842,8349,7853,9386,7300,9848,9337,9080,9847,9078,8310,10869,12917,12918,11893,12149,12405,11637,11637,11893,11893,11380,10612,10612,10611,10611,10355,10097,9841,9073,11633,11632,11120,10864,10863,10607,10351,10351,10095,10607,10351,11631,11631,11631,9839,10863,10862,10350,10606,10862,10862,10605,10349,10605,10605,10861,10861,10605,10861,10861,10861,10861,10605,7021,5997,5229,7789,7788,7788,7532,7020,6508,6252,6252,5996,5740,5996,5740,5741,5742,5998,7534,9070,10094,10094,9326,9071,9839,10351,10607,10608,10608,10352,9840,9842,10354,10354,10354,10355,10355,9843,9844,9332,9334,9846,9334,9334,9334,6518,4471,2679,2423,2423,2680,2680,2680,2424,2424,3192,3704,3704,8824,3704,8312,10616,10106,11386,11130,11386,11387,11387,11387,11899,12668,12924,12924,12924,12926,12414,11902,11134,10879,9343,7295,8575,9856,12416,20352,12673,11393,13185,15234,13443,15492,18308,22916,21124,8838,14473,15756,18575,35481,43655,31123,11930,7847,6071,6596,7368,10701,16075,12236,9165,18615,13234,16054,19113,18585,19096,21397,24727,25752,26275,26993,27752,28855,31922,32388,29280,28760,33151,28068,30628,39334,22703,5563,7109,5840,9183,26354,20977,17125,16086,20415,24771,29363,30372,30366,29597,29082,30360,21145,6559,5545,5019,5281,4525,5027,5179,5170,5159,5254,4507,3959,3388,5454,5181,3099,11122,24483,19613,22687,22685,23201,24500,24497,24464,25746,24997,24242,23983,23944,26240,28852,30140,21173,14012,13990,13437,13443,13438,13469,13488,13250,13261,13272,13295,13311,13302,13273,13243,13225,13240,13222,13221,13220,13221,13221,13220,13219,12960,12959,12957,12959,12960,12962,12962,12961,12448,12448,12447,12447,12191,12190,12189,12444,13209,11672,11927,13975,14741,13461,11669,11670,12181,12180,12947,11411,11922,12689,13969,13201,13969,14735,15502,16525,18829,20109,22157,22925,24203,24713,25480,26504,28295,29318,30854,31622,32644,32900,33667,33923,34435,34690,35457,35457,35457,35199,35455,35967,35966,36222,36221,36477,36220,36219,37498,37498,33401,28025,18296,12920,13942,14709,14709,15477,15988,15988,15987,16242,15984,15984,15983,15983,15983,15982,15982,15469,15470,15215,15214,15214,15212,15212,15211,15468,15212,14956,14956,14444,14443,14443
9735,8967,8967,8711,8711,8968,9735,9735,9991,9991,9736,9736,10246,10244,9992,10248,10249,9737,9737,9225,8969,9225,9224,9737,9741,9996,10249,10248,10248,10248,9224,9736,9737,9737,9224,9222,9220,8708,8968,8718,8970,8964,8960,8742,8498,8471,8983,8987,8480,8481,8729,8975,10497,10752,13312,13824,16896,18433,15875,11782,8197,8195,8192,8208,14357,18191,16902,15111,14604,10506,4364,3597,4365,4366,4110,4880,7185,8977,8975,7696,6420,5910,6425,6427,5915,5915,5664,5923,6186,6177,6175,6174,6431,6174,6173,6429,6172,5659,6427,6425,6939,6940,7195,7192,7448,7704,7702,7702,7446,7703,7960,8216,8472,8473,8728,8728,8727,9239,8981,10005,10773,11029,11028,10772,9748,9748,9749,9750,9236,9246,9244,8993,8992,9309,9885,9885,9885,9374,9378,9382,9353,9086,9338,9080,9847,9847,10103,10614,9846,11894,11638,10613,10613,10613,10356,10356,10356,10612,10868,11124,10867,10611,10611,10609,10609,10609,10609,10352,10352,10352,10351,10351,10351,10351,10351,10351,10351,10351,10351,10350,10350,10350,10606,10350,10094,10094,10093,9325,10093,10093,10093,10093,9837,9837,9837,9837,9837,9837,8813,5997,5485,5741,5997,6508,6508,6508,7020,6508,6508,6252,6252,6508,5996,6252,5741,4206,5742,8302,9070,9838,9070,10094,9327,10863,9839,10607,10352,10352,10352,10352,10354,10354,10354,10098,9842,9842,9074,9074,9076,9076,9332,9333,10101,8821,7029,3957,2677,2421,2421,2678,2678,2678,2423,2423,2423,2167,3959,8824,4471,8567,11127,12408,12154,11642,11642,11643,11899,12155,12412,12924,12924,13182,12926,12927,12671,11903,12159,11136,8832,8064,8576,10113,12673,20609,12930,11650,13442,15235,12420,16260,18821,22661,23940,12165,13448,16011,21647,38808,43907,34191,12954,8610,7090,6592,7115,9167,17099,7113,7872,19631,12208,14781,19109,18068,19095,21140,23446,25496,26270,26749,26975,28078,30382,32412,31338,31574,33407,30888,37796,26790,6318,7096,6082,8397,14559,24045,20973,16616,16612,19918,25031,28342,29351,29854,29596,29084,29083,22685,6561,5544,5265,5535,4520,4524,4951,4909,4897,4982,4246,4499,5962,3146,5700,5409,5241,16804,23968,21919,22689,22436,22953,24753,23211,24212,24721,23975,22448,24235,25475,29309,31156,22475,14019,13998,13950,13179,13946,13470,13231,13250,13262,13019,12782,12799,12540,12765,12739,12966,11961,11687,11684,11682,11684,11683,11679,11679,11168,11937,11680,12962,13475,12196,13989,13989,13986,16544,15007,16031,16799,18590,21917,18844,11931,13209,20120,27032,25752,26264,27800,28567,27286,21396,29075,32146,32914,33937,34704,35472,35984,35982,36494,36493,36748,36748,37004,36748,36747,36745,36488,36488,36487,36230,35974,35973,35971,35971,35970,35970,35970,35969,35969,35968,35712,35712,35710,35709,35453,35452,35707,35963,36474,39032,28535,20343,13431,12662,13942,15478,14964,14964,14964,15220,15219,15219,15218,15218,15216,15216,15215,15215,15215,15214,15214,15469,15214,15215,15214,15212,15212,15211,15211,15467,15468,15467,15211,14955,14441,14441
8201,7944,7944,7944,7688,7688,9226,9224,9990,9990,9222,9224,9224,9224,9992,9993,9993,9225,9225,8969,8969,9224,9992,9993,9994,9738,9736,9735,9736,9224,9736,9226,9228,9997,9994,9992,9988,9989,9222,8970,8706,8712,8475,8500,8234,8216,7441,7951,8202,8453,8456,8455,8205,8214,8712,9216,10756,11777,11016,9231,7959,7946,8193,10284,13355,14631,14623,15126,15630,13072,4121,3865,4377,4379,3867,4893,7199,8991,8733,8221,7199,6946,6434,6178,6435,6946,6441,6439,7211,7210,6441,6185,6441,7207,8230,8228,7715,7458,7714,7714,7712,7711,7965,7963,8219,8220,8476,8732,9244,9244,9245,9246,9247,9759,10271,10526,10780,11035,11545,11544,11544,11544,11544,11799,12311,12311,12307,12057,11799,11545,11551,11812,12066,12371,11163,11416,11160,11161,11160,11161,11399,11137,9850,9848,9847,9847,9847,10614,10870,12406,13942,11893,10869,10613,10356,10356,10356,10612,11124,11380,11123,10867,10867,10865,10865,10865,10609,10352,10352,10352,10351,10351,10351,10351,10351,10351,10351,10351,10351,10350,10350,10350,10350,10094,9838,9838,9837,9325,9325,9325,9069,9837,9325,9325,9325,9325,9325,9325,8301,5485,5229,5741,6253,6252,6252,6252,5996,6508,6508,6252,6252,5996,5996,5740,5229,6254,6254,7278,9326,9326,8302,8814,10095,10351,8815,10095,10096,10096,10096,10096,10098,10098,10098,9842,9074,8818,8818,8818,8819,8819,9075,9075,10611,9331,7539,4468,2676,2420,2420,2678,2678,2678,2422,2423,2679,3447,4471,6264,3447,7287,11383,11895,11642,11898,12154,12155,12155,12411,12668,12924,13180,13182,13182,13183,13951,12671,12927,11904,10112,10880,11136,10369,12673,20609,12930,11650,13442,15235,12420,17028,18821,22917,24452,12676,15240,18570,27022,40854,42369,25484,10904,10145,6576,5823,5834,10700,15819,6090,7872,19372,11954,14780,18595,17816,18837,20884,23189,25496,26269,26754,26716,27307,28840,31656,30597,30548,35704,37800,30627,8357,7084,6071,7874,7117,11488,25581,21232,17385,17128,19671,23502,26553,29352,29598,29341,29596,30621,24222,6561,4264,5778,5787,5804,5809,5998,5940,5926,5742,7068,5304,5726,4421,4166,5927,5237,4260,18336,23968,22946,22947,24995,25000,24750,24747,24980,23698,22693,23983,25767,28552,30591,24245,11723,12219,12160,11648,11638,11926,12210,12738,12748,13273,14060,14590,14844,15328,16328,17067,19132,19882,21156,21923,24228,24739,26015,26526,28831,29345,30114,31395,33188,33445,34726,33702,34468,33952,35232,36255,36767,34463,25246,13468,19867,30873,35225,35224,35480,35480,35992,36248,34197,24980,34451,35475,35217,35472,36239,36239,36495,36751,36750,36749,37004,37004,37004,36748,36234,36233,36232,36232,36487,36230,36230,36229,36227,36226,36225,36225,36225,36224,36224,36223,36223,36223,36222,36221,35709,35708,35706,36218,38265,36471,20598,13942,14710,16245,15989,13941,14964,14964,14964,14964,14962,14962,14961,14961,14960,14960,14959,14959,14959,14958,14958,15213,15214,15215,15214,15212,15212,15211,15211,15467,15723,15722,15466,15210,14697,14441
8452,8452,8710,8710,8710,8967,9735,9990,9222,8967,8969,8970,8972,8972,8969,10249,9225,9994,9994,10250,10252,10253,9996,9997,9998,9998,9997,9996,9996,9996,9998,9999,10003,10260,10000,9229,8969,8968,8720,8721,8230,7987,7744,7993,7987,7982,8228,8482,8475,8464,8462,8448,8448,8705,8472,8478,8449,8458,8467,8998,8493,7448,9989,15924,16452,14407,13366,12841,11300,11299,4131,3875,4899,4387,4387,5156,7718,9766,8996,8995,8483,7716,6436,6436,7204,7204,6957,7214,7723,7724,7981,8237,8749,9260,9257,10024,10278,10276,11298,11553,11296,11808,12061,12057,11798,12054,12311,12567,13333,13844,12315,12572,13084,13339,13339,13339,13851,14617,14616,14361,14364,13853,13855,14370,14627,14627,14624,14630,13871,13887,13381,13390,13902,13932,13966,13963,13451,13194,12677,12677,12158,12158,11897,11896,11895,11895,10871,12406,12150,12918,14966,12661,10613,10357,10356,10356,10356,10612,11124,11380,11123,10867,10867,10865,10865,10609,10609,10096,10096,10096,10095,10095,10095,10095,10095,10095,10095,10095,10095,9838,9838,9326,9070,9326,9070,9326,9069,9069,9069,9069,9069,9325,9325,9325,9325,9325,9325,9325,7789,5485,5485,6252,6252,5996,5996,6252,5996,6508,7276,6506,6250,5482,5738,5483,6509,5742,5998,6510,7790,11886,14702,10094,10095,9839,11375,10607,9839,9839,9839,9839,9840,9841,9329,9074,8562,8562,8562,8562,8818,8818,8818,9075,9331,8307,6259,3444,2676,2420,2420,2420,2678,2678,2422,2422,3447,2679,3959,6263,3958,6262,10871,11127,11898,12154,12154,12154,12154,12411,12667,12923,13180,13180,13180,13182,12926,12158,12670,11647,9087,11391,11903,10368,12416,20096,12673,11393,12930,14467,12164,17796,18052,22404,24707,12676,14983,20361,32910,42645,39814,14734,10650,9890,7346,5824,5322,14540,13260,5323,7869,19107,12721,14011,18337,18585,17812,20371,22932,25495,26782,26766,26455,27048,28835,30634,31392,33888,41326,35754,26530,13474,7594,7861,7618,6094,9182,25832,21487,17640,19174,20445,23760,27576,29096,29854,29597,29852,30109,23198,5793,5288,5013,5018,4522,4525,4234,4146,4137,3929,3736,3794,3959,5946,5950,5416,6531,4514,5794,19874,23203,21923,23970,24482,25513,24752,25003,23697,22926,23962,26020,28073,30353,27010,25274,26824,28554,28543,29559,29845,30385,30658,32459,32728,33258,33532,34044,34533,35280,36018,35777,36013,36262,36515,36516,36259,36256,35999,34977,36002,36259,34211,34212,35493,35238,35238,34468,35233,36768,33439,23199,16031,18846,28572,35483,34969,35225,35224,34968,35224,34968,35224,36501,23956,34707,35731,36241,36240,36239,36239,36495,36751,36750,36749,37004,37004,37004,36492,36234,36233,36232,36232,36487,36230,36230,36229,36227,36226,36225,36225,36225,36224,36224,36223,36223,36222,36221,36221,35709,35708,35706,36218,36729,37751,20342,14710,15477,15477,15733,15733,15476,14964,14962,14962,14962,14961,14960,14960,14960,14959,14959,14959,14958,14958,14957,15213,15213,15214,15212,15212,15211,15211,15210,15466,15722,15722,15721,15465,14953,14696
9738,9740,9996,10252,10252,10765,11021,11023,11025,11027,11285,11287,11287,11286,11286,11286,11287,11031,10776,10776,10777,10779,11033,11035,11035,11036,10781,10267,10268,10524,10523,10523,10528,10783,10780,10776,10517,10259,9760,9008,8753,8736,8479,8467,8464,8209,8225,8224,8477,8468,8711,8704,8704,8453,8734,8502,8450,8211,8488,9020,8747,7686,8705,10496,13826,14890,13376,14635,14635,10283,4137,4136,4904,4393,4392,5161,7724,9771,9770,8234,7720,7208,7976,8488,9000,8489,9000,9264,9769,9767,10024,10024,10536,11304,11567,12079,12335,12590,13873,13874,13368,13880,14652,14653,14658,14660,14664,14666,15183,15186,15446,15449,15456,15460,15977,16236,15982,16238,16498,16499,16500,16501,15990,15736,14969,14456,13940,13945,14458,14463,14462,14463,14443,14454,13951,13438,13179,12922,12667,12667,12663,12666,12409,12408,12407,12407,11127,12662,11894,11894,14710,12149,10613,10357,10356,10356,10356,10612,11124,11380,10867,10611,10611,10609,10609,10609,10353,9840,9840,9840,9839,9839,9839,9839,9839,9839,9839,9839,9839,9326,9326,8814,8558,8558,8558,8814,8557,8813,8813,9069,9069,9325,9325,9325,9325,9325,9325,9325,7533,5484,5740,6252,6252,5996,5996,6252,6252,6508,7786,7530,6250,5738,5482,5739,5741,5230,5998,6510,7790,10606,17006,18286,9327,8815,11119,9071,9071,9071,9071,9071,9072,9073,8817,8562,8306,8050,8050,8306,8306,8306,8562,9075,9843,8307,6259,3699,3443,2419,2419,2420,2676,2422,2422,2422,3959,2423,3703,7287,3446,5750,10103,10615,11130,11642,11130,11130,11130,11642,11899,12155,12412,12668,12924,12670,13438,12414,12926,12159,12415,12927,11391,9344,12160,19584,12161,10881,12673,13954,11651,18307,17796,22404,24451,12931,13959,24200,38028,44179,33418,8078,10651,10915,8115,6081,4297,16588,11980,5069,8382,18592,12973,13501,18078,18838,17300,19858,22932,25496,27038,26772,26452,26791,30370,30629,32682,38267,32614,35496,33185,24992,15529,7348,7618,7631,10970,25318,21743,17639,18147,19167,23248,27320,29095,29343,29597,30365,31389,26526,11683,11945,12185,12698,14504,15274,17310,18489,20013,20551,21123,24491,24697,24884,26678,25894,28298,29092,27810,25763,23202,23971,24227,24229,23718,25002,24749,24235,23188,23942,25753,27820,30386,28566,33668,34474,34939,34169,35197,35229,34479,34754,35018,35288,34792,34810,34556,34791,34773,34743,35013,34993,35239,35492,35236,34980,34467,33698,35489,33698,34979,34980,35237,34981,34726,36518,35748,36514,27041,16032,18591,29855,34206,35229,36508,35227,35483,36505,35480,35480,35736,36248,36757,23701,34708,37267,36497,36241,36240,36240,36495,36751,36750,36749,37005,37004,37004,36746,36234,36233,36232,36232,36231,36231,36230,36485,36227,36226,36225,36225,36225,36224,36224,36223,36223,36222,36221,36221,35709,35708,35706,36218,37241,38263,19318,14454,16245,15477,14709,14709,14708,14964,14962,14962,14962,14961,14960,14960,14960,14959,14959,14959,14958,14958,14957,15213,14956,14957,14955,14955,14954,14954,14953,15209,15465,15465,15464,15464,14696,14439
10775,10775,10777,10780,11037,11549,12062,12318,12576,12576,12832,12832,13087,13088,13088,13088,13090,13091,12836,12838,12841,12841,12327,12072,12065,12067,11812,11555,11552,11298,11558,11815,11814,12067,12063,12061,11809,11561,11302,10767,10752,10752,10240,9984,9728,9728,9735,10006,10000,9216,9216,9216,9218,9231,8979,9008,8213,7946,7480,8231,8192,7426,6403,8706,7169,7427,8251,5930,3886,3887,4141,3887,4406,4409,4416,4929,7747,9028,8781,8271,8789,9047,10071,10847,11877,11107,11356,11632,11898,11900,11901,12157,13182,13950,13187,13961,13967,13967,14738,14736,14735,14734,14731,14730,15241,15241,15497,15496,15240,15241,15242,15754,16265,16264,16517,16516,17283,18051,17538,18048,18048,18304,18559,18559,19070,19069,18557,18557,18557,18301,18047,17789,17509,17273,17019,16762,16502,16245,15733,15734,15737,15994,16248,15480,14967,12918,12918,13941,14709,13942,15733,12917,10613,10357,10356,10356,10356,10612,10868,11124,10611,10355,10355,10353,10353,10353,10096,9328,9328,9328,9327,9327,9327,9327,9327,9327,9327,9327,9327,9070,8814,8558,8046,8302,8302,7790,8557,8301,8301,8045,9325,9325,9325,9325,9325,9325,9324,9324,5740,5484,5740,6252,5996,5996,5996,5994,6250,7274,7786,7786,6506,5994,5738,5995,5484,6509,5997,5997,8557,7789,7790,12398,18286,13423,8559,7791,9327,7535,8303,8303,8560,8561,8305,8049,7281,7537,7794,7794,8050,8050,8306,8818,10099,7795,4979,2419,3187,2675,1907,1908,2420,2420,2422,3190,4215,3959,3447,6007,4470,5494,8566,10359,10872,11129,10873,10362,10362,10362,10875,10875,10363,12156,11900,12414,11902,11390,11902,8831,11391,13951,13183,8320,10112,18817,11393,8321,11906,13187,11652,17540,17284,20868,23939,11907,13959,26759,42122,41872,23436,10638,10650,10150,9913,7620,8396,17360,11471,6608,8384,18594,14492,13490,16806,18839,16788,18836,22676,25495,25759,26524,26709,26786,30112,30880,32424,32407,15215,41378,43933,34981,27051,16821,12228,7887,19163,26341,23276,18146,18403,19428,23250,27322,28583,29087,29853,30621,31133,31646,33443,34473,33949,33948,33962,33956,34474,34370,34355,34100,33645,34175,33391,33581,34095,33583,33427,32686,32676,27553,24994,24227,24229,25767,24490,24490,24487,24492,23729,23959,25479,27542,30630,29877,32926,35204,34143,34902,34922,34953,34989,35003,35529,35544,35558,35568,35323,35304,35289,35263,35019,34999,34987,34981,34981,34981,34981,34981,35234,35234,35235,35236,35493,35494,36519,35750,28324,18082,17313,29344,36255,36255,36254,36253,36252,35995,35995,36505,35992,36504,36504,36248,36757,25493,34452,36499,36497,36497,36496,36240,36751,37007,37006,37006,37005,37004,37004,36746,36234,36233,36232,36232,36487,36487,36486,36485,36227,36226,36225,36225,36225,36224,36224,36223,36223,36222,36221,36221,36221,36220,36218,36474,37241,38007,18294,14710,14709,14709,14709,14708,14964,14964,14962,14962,14962,14961,14960,14960,14960,14959,14959,14959,14958,14958,14957,14956,14443,14442,14441,14441,14440,14440,14695,14951,15463,15718,14950,14694,13925,13413
10787,11044,11814,11814,12326,12583,11558,11303,11304,11304,11305,11051,11053,11053,11053,11053,11052,11308,11820,12077,12335,12079,12078,11824,11821,11822,11820,11815,11817,12076,12331,12585,12584,12584,12584,12335,12082,11559,11265,11521,11776,12033,12033,12032,11776,11776,12047,12033,12032,11776,11271,11027,10509,10252,8724,8998,9270,9296,9270,8960,8714,8199,8708,5892,7942,16128,25189,23180,12690,3995,3991,3992,4508,4254,3998,5023,7327,9119,9120,8351,10140,11163,11932,11679,11931,11924,12943,13210,13468,13465,13977,14489,15513,16024,16023,16534,17045,17045,18068,18064,18063,18830,18059,18314,19081,19335,19591,19590,19589,19590,19334,19334,19335,19336,19848,20103,19845,20099,20098,20096,20096,20096,20351,20606,20606,20606,20094,19838,19581,19326,19324,19584,19817,19569,19322,18552,18292,18036,17268,17270,17016,17273,18295,17783,16758,13942,15990,16757,17269,16758,17525,14709,10869,10101,10356,10356,10356,10356,10611,10867,10355,10099,10097,10097,10097,10097,9840,9072,9071,9071,9071,9070,9070,9070,9071,9071,9071,9071,9070,8814,8558,8046,7790,7534,7533,8301,7789,8301,8301,8557,8557,8813,8813,8813,8813,8812,8812,8812,5740,5484,5740,5996,5996,5994,6250,6250,6506,7274,7530,7786,7530,6506,6250,5995,7532,6253,5485,5741,8813,9837,7278,7278,8814,17774,15726,8046,7278,8558,7278,8047,8304,8305,8049,7793,7793,7537,6513,6513,7281,7026,7794,8562,10610,8050,4978,3443,3187,2675,1907,1907,2419,2420,2420,2676,3702,3958,3958,4470,3956,3700,6518,7798,7544,7545,7545,7545,7545,7802,8058,8314,9339,10619,9339,8828,8828,10364,8318,6526,11391,9855,10111,8831,9344,18048,11393,10113,11649,13443,11396,16260,17284,19844,22147,11139,12935,29319,44935,38029,16269,12431,10652,9127,9402,8903,12241,16340,10959,7633,8640,18082,14984,12965,16552,18843,16792,18838,21910,24984,25758,26530,26711,26521,29854,31645,29094,18087,7299,46753,50592,44457,34989,28342,17602,7887,29147,28386,23012,18397,17635,19430,23507,26552,27816,28575,29598,30877,31645,32415,33444,34473,34463,34461,34475,34471,34478,34385,34358,34346,34408,32109,32621,33577,33583,33346,33159,32686,32935,30114,25507,24228,24229,23975,23466,25257,23973,24746,23468,23734,25246,27534,31136,29610,33199,35501,34438,35163,35186,35209,35243,35261,35785,35801,35813,35822,35579,35562,35547,35523,35279,35004,34991,34982,34982,34981,34983,34983,35236,35235,35235,35236,35237,36262,32423,20903,16293,27812,35234,37281,36512,36511,36511,36510,36509,36252,36251,36763,36249,36760,36760,36504,36501,25493,34452,36499,36497,36497,36496,36240,36751,37007,37006,37006,37005,37004,37004,36746,36234,36233,36232,36232,36231,36231,36230,36229,36227,36226,36225,36225,36225,36224,36224,36223,36222,36222,36221,36221,36221,36220,36218,36474,38009,39031,19830,15734,15733,15733,15733,15732,14964,14964,14706,14962,14961,14961,14960,14960,14960,14959,14958,14958,14958,14957,14957,14956,14442,13929,13928,13927,13927,13926,13926,13926,13925,13925,14435,13923,13155,13410
8491,8491,8491,8491,8490,8746,10282,10537,10537,10535,10276,10275,10276,10535,10793,11051,11308,11308,11305,11307,11313,11571,11062,10554,10553,10556,10556,10559,10568,10801,12338,12603,13117,13108,13875,13876,13107,13102,13841,13829,13829,13828,13824,13826,13319,13058,12800,12544,12292,12048,11798,12047,12042,12047,12053,12066,12632,12675,12298,11782,10760,9735,7940,8199,6154,7424,14448,10411,5288,4262,3749,3493,4260,3748,3746,4512,7327,8864,8863,7328,10656,13983,14491,14493,14998,16270,18068,18073,18075,17817,17813,18069,18837,19350,18071,18327,18325,18324,19347,19343,19598,19597,19594,19594,19849,19847,20615,20614,20869,20869,20614,20614,20614,20615,20101,19845,19844,20355,20610,20608,20608,20608,20607,20605,21117,21117,21118,20607,20350,20095,19840,19841,20075,20079,19325,19066,18808,18552,18552,18553,18809,19066,19576,19831,17782,12406,16758,17781,18037,17782,20085,14965,11125,10101,10356,10356,10356,10356,10355,10355,10355,10099,10097,10097,9841,9841,9328,8816,8815,8815,8815,8814,8814,8814,8815,8815,8815,8815,8814,8558,8302,7790,7534,7278,7277,7533,7533,8045,8045,8301,8557,8813,8812,8812,8812,8812,8812,8812,5740,5738,5738,5994,5994,5994,5994,6506,6506,6250,6250,7274,7530,7274,6506,5995,5740,5741,5997,7533,8557,8557,7789,7277,7022,5230,15982,15726,5230,7278,7022,6511,7024,7025,6513,6001,6257,6001,4977,4977,7025,6258,6514,7794,10098,6258,3442,2675,3443,2675,1907,1907,2419,2420,2676,2676,3444,3444,3188,2422,7284,372,9844,10614,10359,10104,10360,10873,11641,12153,13178,13434,15739,18299,19579,20860,21372,22396,12926,14718,21375,22399,21375,14463,8832,21120,12417,8833,11905,15235,11396,13956,17284,18052,19331,9091,12423,30343,41862,29836,12433,11155,11169,9387,9151,8652,15826,10963,8658,7891,7873,16545,15759,12680,15780,18850,16027,18073,21656,24730,25757,26276,26712,26514,29600,30876,27042,8876,8860,49565,54944,51627,44210,34999,27842,20172,31450,29410,22752,18648,18655,19430,22484,26040,27561,28320,29342,30365,32669,32671,33700,34217,33953,33946,33971,33964,34218,34147,34098,34343,33116,34150,33626,33066,33072,33869,34672,33469,33196,31911,25254,23717,24229,24741,24231,24231,23974,24486,23208,23727,25274,27560,31124,29091,33453,35764,34729,35507,35517,35521,35510,35516,35784,35799,35810,35819,35580,35563,35550,35530,35283,35007,34992,34985,34982,34982,34983,34983,35236,35235,35236,35237,36006,27303,16809,22695,32422,35236,36258,36258,36513,36512,36511,36510,36509,36764,36763,36763,36761,36760,36760,36504,36503,25493,34452,36499,36499,36497,36496,36496,36751,37007,37006,37006,37005,37005,37004,36746,36490,36489,36232,36232,36231,36231,36230,36229,36483,36226,36225,36225,36225,36224,36224,36223,36222,36222,36221,36221,36221,36220,36218,36474,36729,38007,20342,14966,14965,14965,14965,14964,14964,14964,14706,14962,14961,14961,14960,14960,14960,14959,14958,14958,14958,14957,14957,14956,14442,13929,13928,13927,14439,13926,13926,13926,13413,13157,13923,13923,13923,13410
9003,9773,10032,10035,10038,10294,10815,10821,11087,11091,11102,11361,11369,11375,11385,11388,11394,11396,11658,11663,11674,11424,10660,10921,10922,10926,11183,11181,11406,11598,10828,11087,11337,11329,11328,11071,10813,10292,10033,9261,9248,9238,9752,9987,10752,11008,11783,12037,13322,13837,13838,13832,13069,12805,11539,11554,11091,10566,10752,11524,11532,10505,10246,9225,9731,8967,12415,9126,7848,5285,4009,3752,4260,3748,3747,4003,7074,8864,8867,8100,12961,17057,18339,18596,18330,18063,17819,17817,17819,17816,18071,18327,19351,19863,19863,20119,19861,19859,20626,20880,21134,21645,22156,22154,21897,21897,22151,22151,22407,22663,22664,22664,22664,22663,22662,22660,22659,23168,23167,23168,22399,22143,22143,22143,22399,22655,22654,22655,22654,22655,22398,22405,22384,22122,21377,20860,20604,20347,20345,20345,20346,20858,21112,22391,20086,13174,19062,20085,20597,20086,21109,13941,11381,10101,10100,10100,9844,9844,10355,10355,10099,9843,9841,9841,9841,9329,8816,8560,8303,8303,8303,8301,8301,8301,8303,8303,8303,8303,8045,7789,7533,6509,5741,5741,5740,5740,5996,6508,7020,7020,7276,7532,7787,7787,8043,8043,8043,8299,5483,5738,5738,5994,5738,6250,6506,7274,6506,5994,5994,6250,7274,7530,6506,5995,7276,7277,5997,5997,6509,7789,8301,6253,5742,5230,4974,15470,12398,8046,8046,8047,8304,8305,8049,7793,9841,9329,9841,10097,11889,11378,12146,13426,10354,6514,3698,3699,3443,2675,1907,2163,2163,2164,2420,2420,4468,1908,1140,2420,13940,372,18548,22390,20343,19576,19320,19320,19577,19833,20090,20602,21371,23163,23163,23676,23420,24188,12156,17533,21629,21374,21374,15231,8063,20864,12416,10625,12161,15747,11396,12676,17028,16772,17539,8323,12422,28550,41862,22668,10387,10645,11170,11179,9920,8143,17618,8656,9425,10451,9921,17825,16278,12909,15501,18853,16549,18081,21661,24220,25758,26276,26710,26515,30368,30621,26016,9127,7591,40603,54435,55211,52657,45751,36032,27338,28118,28898,24289,23256,22752,20203,22489,26558,27306,28320,29342,30109,32670,32417,33444,33961,34982,34970,34746,34741,34481,34420,34354,33827,33875,34412,32597,34599,35107,33353,34386,33712,34225,30890,24999,24486,24485,23716,23461,24231,24487,24233,22951,23980,25011,27327,30889,28812,33177,35748,34735,35521,35544,35524,35513,35519,35784,35798,35808,35817,35576,35564,35559,35541,35288,35267,35251,35242,35239,35239,35240,34984,35237,35236,35237,35237,21670,16294,28839,35751,35749,36260,36770,35234,36513,36512,36512,36512,36509,36509,36508,36507,36507,36505,36504,36504,36503,25493,34452,36755,36499,36497,36496,36496,36752,37007,37006,37006,37005,37005,37004,36746,36490,36489,36232,36232,36230,36230,36229,36485,36482,36482,36482,36482,36225,36225,36224,35967,35965,35965,35964,35964,36220,36219,36218,36729,37241,38519,21878,15990,15989,15989,15989,15988,15220,14964,14706,15218,15217,15217,15216,15216,14960,14959,14958,14958,14958,15213,15213,14955,14698,14442,14441,13928,13928,13926,13926,13926,12901,13413,13923,14435,12643,11106
9113,9117,9888,10144,10660,11174,11183,11186,11189,11190,11191,11191,11193,11194,11197,11198,11198,11199,11199,11199,11199,11200,10943,10944,10945,10945,11199,11201,11162,11064,12339,12606,12619,12881,12627,12629,12107,12096,13107,12587,11281,11527,10752,11008,10242,10255,10256,10252,10250,10761,11020,10764,11021,11535,11027,10792,11324,11520,11776,11525,10771,10768,10764,10762,10496,9275,8604,10409,10152,7337,6058,4264,4519,3751,3494,3750,7076,8868,8612,7075,11681,18081,16801,18851,19096,19605,19610,20120,21145,21144,21401,21656,21911,22422,21397,22677,21651,21650,22672,23184,22672,23951,23180,23691,24202,24457,24713,24967,24966,24966,24967,24967,24710,23942,24453,23939,24706,24451,23682,23423,22911,22911,22910,22910,23678,23678,22398,22654,23423,23935,23934,23429,22647,22632,22404,22398,22141,22140,22138,22136,22393,22905,23671,23671,21366,13942,21110,20597,22133,23926,22133,11381,11125,9845,9844,9844,9332,9331,9843,9843,9841,9329,9329,9328,9072,8816,8303,8047,7789,8045,8045,7276,8044,8300,9068,6252,7020,7788,7532,7019,6507,5995,5739,4971,3946,3946,3690,3434,2154,1642,3178,2410,3946,7018,8810,7018,8041,6505,5482,5738,5738,5994,5994,6250,7530,7274,6506,5738,5738,6250,7530,7786,7274,6251,6508,5997,5997,5741,6509,8301,10349,16237,16494,16750,9838,12142,19054,18030,18030,17007,18544,19313,18545,18801,18545,18289,18033,17777,18545,19825,20081,17265,9841,6257,3697,4210,3697,3184,2416,2160,1650,1394,1394,1650,7283,3699,1139,371,17522,883.0001,16755,23156,20599,19064,19064,19320,19320,19065,20089,18554,21369,21370,22394,22907,22907,24955,8828,20604,21630,21375,22399,14720,7808,21888,12161,9857,11649,15490,13955,11395,18052,16260,15491,5763,13189,27270,38536,30092,23952,19095,12713,11440,12482,13518,16079,12750,10190,11468,10174,16290,18083,11929,15734,20364,16820,18348,22179,24477,25761,26279,26718,26250,29858,30367,26530,9892,8615,29082,45731,57771,57262,54196,48575,36039,26834,26330,22498,19683,24803,25067,23765,26048,27818,28065,29085,30109,31902,31905,33445,34983,34984,34970,35009,34748,34727,34695,34349,34345,33862,34153,34117,34076,34070,34105,34102,33951,34740,32426,26792,23972,24227,23715,22949,24230,25000,25000,24232,24234,25004,26806,30136,28325,32647,35225,34728,35515,35285,35270,35264,35264,35783,35796,35806,35814,35828,35821,35825,35810,35804,35784,35765,35754,34728,36776,35495,37028,34470,37798,32935,18599,20646,32421,36517,34726,36006,36261,36260,36260,36514,36513,36512,36512,36509,36509,36508,36507,36507,36505,36504,36504,36503,26517,33172,36756,36756,36755,36753,36753,37008,37264,37263,37262,37261,37261,37260,37002,36745,36744,36487,36231,36231,36229,36484,36484,36483,36481,36480,36480,36480,36223,36221,35965,35708,35708,35707,35963,36474,36730,36729,36985,37751,38263,22134,15733,15733,15988,15732,14706,14962,14706,14705,14961,14960,15216,15471,15215,15215,14958,14957,14957,15213,15467,15723,15467,14442,13930,13929,14441,13415,14439,14695,13927,11877,10341,8803,8291,7011,6242
10417,10417,10674,11185,11955,12212,12212,12469,12470,12470,12728,12729,12985,12986,12731,12733,12733,12990,12990,12990,12990,12991,12990,12991,12992,12738,12738,12743,12463,12378,12130,11877,11604,11077,11059,11056,11079,11341,11078,10785,10240,11264,11266,12052,12051,12298,13320,12807,12040,12041,11530,10508,10253,9999,9238,9756,9787,9728,9728,9993,10505,10775,9231,9218,9728,9839,9901,10407,9387,7844,6056,4266,4519,3751,3494,3750,6310,8614,8102,7590,14756,21411,20641,21667,21397,21910,21402,21911,22681,22935,23193,23191,23446,23701,23444,24468,23699,24210,24466,24720,23440,24463,23948,23947,24714,24969,25223,25479,25478,25222,25222,24966,24965,24709,25220,24963,25218,24706,24449,24190,23678,23678,24189,24445,24701,24958,23677,23678,24190,24447,24445,24196,23673,23656,23429,23422,23421,23421,23418,23416,23416,23672,24951,23159,18038,16502,22902,23669,23925,22902,16501,8565,10101,8821,7796,8052,8820,9843,7795,7795,7793,8049,7792,7536,7536,7792,7277,7021,7021,7533,7533,7020,8044,8556,5228,4460,7532,8556,7531,7531,7787,7787,7019,7531,8297,8809,10601,10857,11625,11625,11881,12649,13929,7273,6505,14696,19048,12649,5226,5737,5738,5738,5994,7274,7530,6506,6250,5994,5994,6250,7530,7785,7529,6250,7787,7275,5997,7533,7533,6509,10093,14957,19566,19822,17006,8558,17262,19566,18798,17262,17263,18032,17008,17520,17264,17008,16752,16496,17520,18289,18545,16753,9073,5745,3697,4210,3696,3440,2672,2416,1904,1648,1649,1649,8561,7025,1393,369,13937,3697,12145,22643,20853,19319,18807,19063,19064,18808,19833,20344,20856,21112,21624,22393,23161,22905,7546,23931,21629,20862,21630,14463,7551,22143,12928,10112,11648,15746,16771,13187,16260,18052,14723,9347,13445,27526,35975,30605,32659,33429,28588,22708,14787,14030,14798,10447,9415,10687,9397,15781,18604,10422,12954,20848,17557,18358,21928,23974,25509,26027,26719,26246,28832,31390,27809,9890,8610,28317,32933,44455,56492,57267,54974,48838,36560,31449,23521,24036,27876,27624,25299,26561,27563,28321,29085,29853,31646,31393,32933,34983,34985,34972,34755,34756,34734,34709,34353,34348,33849,34139,34071,34064,34068,34092,34100,33922,34483,31913,27046,24227,24483,23970,23204,23973,25000,25257,24489,24490,25004,26544,29621,28336,32430,34962,34712,35257,35022,35022,35017,35271,35785,35793,35800,35806,35823,35819,35823,35817,35808,35788,35765,35754,36521,35753,36777,35749,37032,33447,15528,21927,34469,36516,35236,34468,36005,36261,36261,36260,36514,36514,36513,36512,36511,36509,36508,36507,36507,36505,36504,36504,36503,26773,32916,36756,36756,36755,36753,36753,37008,37263,37262,37262,37261,37261,37260,37002,36745,36743,36486,36230,36230,36229,36484,36483,36482,36480,36479,36479,36479,36222,36221,35965,35708,35452,35451,35707,36729,36985,36984,37239,36727,40054,25205,14709,15733,15988,15732,14706,14962,14706,14705,14705,14960,14960,15215,14959,14959,14446,14701,14445,14957,14699,14955,14699,13418,13162,13161,12904,12904,11879,10343,9062,8036,8035,7267,7267,7010,6498
10419,10418,10675,10932,10932,11444,11445,11957,11958,11958,12216,12473,12729,12473,12220,12220,12220,12221,12477,12477,12733,12734,12990,12991,12992,12738,12485,12485,12217,12140,13420,13429,13432,12918,12905,12895,12879,12860,12582,12342,11304,11552,10784,11284,10771,10761,10759,10503,10504,10761,11530,11532,12045,12558,12048,11793,11826,11532,10752,10757,10756,11286,9986,9216,8223,7579,7601,7846,7594,7848,5800,4266,4520,4008,3751,4007,6311,8103,7846,7591,15780,22436,21153,21918,21910,22940,22938,23449,24217,24473,24473,24471,24726,24981,25236,26004,24979,24978,24978,25232,24720,25487,24972,25483,25738,25993,26503,26503,26502,25990,25990,25990,25989,25989,26500,25987,25987,25986,25473,25216,25214,25214,25213,25469,25981,25981,25212,24957,24957,24702,24701,24961,24954,24934,24965,24960,25215,25212,25209,25207,24951,24951,24951,24695,14454,19318,23414,24437,23413,20342,8565,5237,6005,4469,7028,6516,6260,6515,7283,7795,8305,8305,8816,8816,9840,9840,11629,11629,12397,13165,13933,14444,15468,17004,8044,10860,16492,17260,18027,18283,18539,18283,18027,17769,17513,17001,16745,16233,15721,15721,17769,18793,18793,19817,16745,8552,15463,12648,5225,5737,5738,5738,5994,7530,7274,5994,5994,5994,6506,7530,7786,8041,7785,6506,7275,7531,5997,7533,7277,5741,8813,11373,20846,18542,17774,10094,12654,18030,17518,18542,16495,17264,16240,16752,16752,16496,16240,15984,17776,17776,18032,16752,8816,6000,3696,4208,4207,3951,3439,3184,2672,2416,2160,1904,8304,9328,624,624,9840,10352,3696,22898,20852,19573,19061,18549,18295,18808,19320,19064,20087,20088,21112,21625,24185,20857,7546,23931,21629,20862,21630,13951,7551,22399,13952,10624,11904,16256,20355,13443,12676,17540,10115,21379,13957,25478,32135,31372,32403,32661,33978,33978,27077,16082,16338,12242,10436,10936,10165,16303,19878,9145,10673,21391,18032,18584,21943,23476,25001,26030,26979,26749,28830,31386,27804,9887,6306,30109,30375,34734,45230,58805,59071,56520,49358,37590,30945,27877,30434,28384,25034,25279,27307,27809,28829,29597,31646,31393,32933,34983,34986,34718,34753,34763,34739,34732,34616,34347,34094,34117,34072,34073,34076,34096,34100,33878,33711,31655,27045,24483,24483,23971,22947,23974,25000,25257,25002,24491,25004,26537,29102,28855,32452,34989,34717,35244,35012,35026,35015,35268,35796,35792,35794,35800,35817,35820,35822,35830,35810,35789,35767,35756,34986,36267,36265,37289,34473,17065,21929,35239,35493,34981,36005,35494,36005,36262,36262,36261,36516,36516,36514,36513,36512,36510,36509,36508,36507,36507,36505,36505,36503,27798,31893,37012,36756,36755,36753,36753,37008,37263,37262,37262,37262,37261,37260,37002,36745,36743,36486,36230,36230,36229,36484,36483,36482,36480,36479,36479,36479,36222,36221,35965,35708,35452,35451,35707,36729,36985,36984,37239,36727,37750,25717,14709,15733,15988,15730,14706,15218,15218,14705,14704,13936,13935,14447,14447,14702,14446,14701,14445,13933,13931,13931,12650,11626,11114,11369,11624,10600,10087,9319,9062,7780,7523,7011,7267,7010,8034
11187,11698,12210,12468,12470,12980,12982,13238,13240,13240,14009,14009,14009,14009,14780,14525,14013,14014,13502,13502,12990,12736,12736,12736,12993,13506,14020,14019,14015,13943,13426,12913,13429,13434,13431,12916,12658,12653,12367,12360,11840,12062,12054,12559,12556,12809,13063,12551,12808,12809,12810,13324,12813,12813,12297,11540,10534,10263,10496,10753,11527,11534,9986,10240,9821,8620,8877,8624,8106,8105,5802,4266,4522,4010,3752,4264,6311,8103,8615,7845,16037,22692,21667,22938,23703,24737,23962,24729,25241,25497,25497,25495,25750,26261,26772,27028,25491,25491,25490,26258,26256,27535,26764,27275,27530,27529,27783,27783,27782,27782,27782,27782,27781,27781,27780,27523,27267,26754,26497,26496,26494,26238,26237,26237,26237,26237,26236,26236,25724,25469,25470,25727,25724,26212,25734,26240,26238,26494,26487,26486,26230,25975,26999,24951,11638,21878,22902,23157,22389,20342,16245,16245,18037,17781,17268,17780,18548,19059,19571,19571,19569,19313,18800,18544,18288,18032,18029,18029,18541,18029,18029,18540,18540,19820,7788,11628,17772,17772,17259,16491,16235,15723,15467,15209,14953,14953,13929,13929,13161,13417,14953,16745,15721,16745,18536,18535,8551,5224,4969,5993,5993,5993,5994,6506,6250,5738,5738,6250,7530,7785,8041,7785,7273,6506,6507,7531,5995,6251,6253,5741,6509,8813,16750,19054,17006,15214,5998,16238,15982,16494,15727,16496,15728,16240,16240,16240,15984,15984,17520,17520,17776,17264,8816,6000,3440,4208,4463,4463,3951,3696,3440,3184,2672,2416,7536,12400,880.0001,624,6256,14704,368,20850,21364,19573,19317,19061,18806,19063,19319,19576,19831,20088,20600,21369,22649,19577,10874,23675,21629,20862,21886,14463,8063,22911,13952,11136,11904,16256,20867,12163,11652,20612,7043,32131,13957,22662,31879,32652,33171,33688,34241,34243,28104,15059,16596,10962,9158,10172,9149,15286,20392,10422,10927,21676,18322,19054,21904,23225,25008,26036,27240,27259,29340,31128,30362,15261,9380,29085,34731,33205,25007,41143,57536,60873,58829,49109,39647,26341,32481,28891,25539,26301,26795,27553,28573,29341,31646,31649,32933,34983,34474,34721,34748,34764,34741,34747,34630,34353,34098,34093,34079,34073,34078,34100,34099,33848,33699,31909,27300,24740,24484,23716,22437,23719,24744,25257,25002,24748,25004,26283,29097,29102,32441,35014,34731,35239,35013,35028,35008,35267,35803,35798,35794,35794,35814,35820,35821,35835,35815,35790,35767,35757,35754,36778,35499,36521,20651,20652,34730,36776,36006,36261,34981,35494,36007,36263,36262,36518,36517,36516,36514,36514,36512,36511,36510,36509,36508,36507,36505,36505,36503,28054,31637,37012,36756,36755,36753,36753,37008,37264,37263,37262,37262,37261,37260,37003,36745,36744,36487,36486,36486,36229,36228,36483,36482,36480,36479,36479,36479,36478,36477,36221,35964,35964,35963,36219,36729,36985,36984,37239,37751,38262,27509,15733,15733,15988,15730,14706,15218,14962,14449,13936,13424,13167,13423,13423,13934,13422,13933,13165,12653,11883,11115,10090,9066,8810,9321,9832,8552,8295,8295,8550,8548,8803,8803,9059,10338,11106
14004,14003,14004,14005,14006,14774,16056,16313,16058,16058,15802,15802,15802,15548,15294,15550,15550,15551,15039,15039,15551,15553,15809,15809,16067,16068,15813,15815,15817,15757,15733,15739,15481,14968,14963,14959,14963,15204,14681,13888,12613,12575,11793,12044,11532,11273,11529,11527,11528,11018,11532,11020,11021,11021,12044,11795,11807,12078,12288,12288,12044,11782,11520,11283,9873,8370,8621,8876,8617,8360,5802,4010,4266,3754,3752,4264,6056,7847,8614,7335,17317,24229,23715,24467,24734,25503,25499,26010,27034,27034,27033,27031,27286,27286,28565,28565,27284,27283,27027,27538,27792,28559,28300,28299,28810,29065,29063,28807,28806,28806,28806,28806,28805,29061,28804,28291,28291,28034,28033,27776,27774,27774,27517,27517,27261,27261,27260,27260,27259,27260,27262,27262,27004,26980,27015,26752,26749,26747,26744,26998,27254,26999,26743,23671,10870,23670,22390,21877,23669,22133,20341,19572,19572,19316,19059,18035,17523,17521,17777,17777,17777,17777,17776,17776,17776,17520,17261,17261,17517,17261,17261,17260,17260,18796,3948,12908,17260,16748,16491,16235,15211,15211,15467,14953,14953,14697,13929,13417,13161,13161,16489,17001,17001,17000,15719,17767,15207,3432,4457,5993,5993,5993,5993,5737,5994,5994,5994,6506,7785,8041,7785,6505,7273,7530,7531,7531,7275,6251,6507,7275,5741,8045,8301,18542,17774,16494,6510,12398,16494,15470,14703,15472,14960,15728,15728,15728,15984,15728,17008,17264,17008,17264,8816,6000,3440,4208,4975,5231,4207,3952,3696,3440,3184,2416,6000,15984,624,1392,2160,18288,112,17266,20595,19060,18548,18292,18293,18806,19062,18807,20599,21112,20856,21624,22649,18041,13177,23931,22140,21116,22654,15230,8063,23679,15487,11647,12928,17024,18561,12930,12163,16515,7554,39299,15492,20869,31878,32907,32659,32920,33224,33742,26577,15064,14803,9938,9158,10690,9153,14515,20382,11943,10913,21405,18335,17807,21620,23440,25532,26054,26998,27257,28571,31890,31386,24474,9120,28576,33716,32194,20655,30133,42947,59593,59341,57044,48350,30950,36322,26581,24763,25018,26795,27297,28061,29085,31902,31649,32933,34471,34990,34979,34996,35024,34999,35007,34902,34860,34106,34098,34079,34071,34087,34097,34107,33824,33925,32426,27559,24745,23974,23207,21928,23465,24746,25258,25003,25004,25516,26541,28846,29361,31416,34760,34999,34997,35284,35277,35257,35523,35804,35800,35799,35794,35812,35813,35820,35838,35819,35794,35767,35757,35756,35242,36523,26540,18092,34221,36012,34729,34727,35237,35493,35750,36263,36518,36517,36517,36517,36516,36514,36514,36512,36511,36510,36509,36764,36763,36763,36761,36760,29590,30869,37268,36756,36755,36753,36753,37008,37264,37263,37262,37262,37261,37260,37003,36489,36488,36487,36486,36486,36485,36484,36483,36482,36480,36479,36479,36479,36478,36477,36221,35964,35964,35963,36219,36729,36985,36984,37239,36727,39030,30325,15733,15989,16244,15986,14962,13426,15218,13937,12912,15728,14703,14447,13935,12910,12142,11117,11373,10091,8811,8299,8042,8298,8554,8809,8808,9320,9831,9831,10086,11108,11875,12642,12898,12898,12897
14004,14516,14774,15032,15544,15801,16057,16569,16826,17082,17338,17338,17339,17341,17087,16831,16575,16575,16577,16321,16321,16577,16322,16322,16067,15812,15557,15047,14798,14493,13926,13936,13943,13936,13420,13414,13420,13170,14431,13889,13381,14372,14611,15625,15626,15625,14856,14599,13831,12809,12298,12042,11788,11020,11274,10767,10526,10035,9216,8704,9222,9729,11520,11607,10156,8879,8877,9900,9385,8361,5803,4011,4010,3754,3752,4264,6311,7847,9894,7334,18085,24997,24993,25234,25249,25758,26523,27290,27802,28058,28057,28055,28054,28822,29333,29333,28820,29075,28563,28818,28560,28559,29068,29323,29578,29577,29577,29319,29062,29062,28806,28806,29061,29317,29060,29315,29059,28802,28545,28544,28542,28542,28541,28541,28029,28029,28028,28028,28794,28795,28798,28797,28027,28003,27783,27776,27516,27514,27512,27766,28534,28022,28279,21111,12918,24950,24950,23413,23157,20853,19573,19060,18548,18548,18035,17267,16755,16753,16753,17009,16496,16496,16752,16751,16495,16496,17261,16749,17005,17005,16749,16748,16748,18028,3436,13164,17259,16491,16235,15979,15211,14955,15211,14953,14697,14441,13929,13417,12905,13161,14441,15465,15208,15207,17255,16231,16999,1640,4201,5993,5993,5993,5993,5993,5993,5993,6249,7273,7785,7785,6505,6249,6505,7274,8298,7787,8043,6251,7275,7787,5483,7275,5997,14701,17773,17005,12397,5485,16749,16238,14446,15215,14959,15472,15728,15984,16240,15984,16496,17008,17008,17264,8560,5744,3184,4464,5487,5231,4207,3951,3696,3440,3184,2416,5488,18800,880.0001,624,624,18288,1136,13424,20082,18803,17523,17779,18036,18292,18549,19061,20853,19831,20855,21112,21112,15224,13945,24954,23164,22140,23420,16510,7038,24446,16255,11903,12927,16767,17281,13954,12675,12419,13954,42627,15492,19333,31366,33163,32403,32409,32198,32467,24273,19160,11987,8401,10950,10689,9410,12467,20889,12207,11171,19337,19347,17825,21652,23664,25749,26814,27789,26998,29600,31381,32410,28574,16291,27043,34230,27336,25010,33464,33476,37578,57037,58068,46557,41702,39908,26582,24505,24761,26539,27297,28573,29341,31902,31649,32421,34471,34990,34978,34995,35029,35006,35005,34915,34861,34358,34122,34089,34069,34089,34105,34112,33827,34417,32694,27563,24743,23718,22694,21928,23209,25002,25260,25005,25005,26029,26542,28590,29105,31415,34756,34992,34976,35250,35249,35242,35527,35803,35800,35799,35793,35808,35811,35814,35832,35821,35795,35768,35757,35500,38570,31915,16811,30124,35245,35501,34475,35240,35494,36005,36006,36263,36519,36518,36517,36517,36517,36516,36514,36513,36512,36511,36510,36765,36764,36763,36762,36760,29846,30101,37269,36756,36755,36753,36753,37008,37264,37263,37262,37262,37261,37260,37003,36489,36488,36487,36486,36486,36485,36484,36483,36482,36480,36479,36479,36479,36478,36477,36221,35964,35964,35963,36219,36729,36985,36984,37239,37239,38262,31861,15733,14709,15476,15730,14706,15730,15730,14705,15216,15984,14703,12910,13422,11886,10861,10349,10093,9835,9323,10602,12138,13929,13417,11368,10856,11111,11111,11366,11621,12388,13154,13922,13922,13921,13921
14516,14005,14006,14006,14518,14776,15033,14777,14522,14521,14522,14011,14012,14013,13503,13504,13504,14016,14017,14017,14529,14785,15042,15042,15555,15556,15045,15044,15048,15019,15451,15456,15758,15769,15736,15456,14934,14944,14693,14401,13906,13874,13847,14346,14345,14601,14855,14855,14599,13832,13321,13834,13324,12554,12808,12556,12569,12350,12057,11776,12292,12544,11777,9865,7853,7853,8875,10410,10922,9899,6060,4268,3755,3243,3498,4008,6311,7847,8614,7334,19110,26278,26266,26519,26788,28062,27548,28571,29082,29082,29081,29079,29334,29334,29589,29589,29332,29587,29075,29330,28818,28816,29325,29580,29835,29834,29578,29577,29319,29319,29574,29574,29574,29829,29316,30083,29827,30082,28545,28544,28798,28798,28797,28797,28541,28541,28539,28538,29049,29050,29052,29052,28539,28514,28550,28543,28795,28793,29047,29045,29301,29046,28790,16759,19318,26230,24438,21877,21109,19317,19829,19316,19060,18804,18547,17523,17267,17265,17777,18033,17520,17264,17008,16495,15727,15984,16493,16493,16493,16749,16493,16236,16748,17516,2668,14700,17259,16747,16235,15979,15211,14955,15211,14953,14697,13929,13929,13161,12905,12905,14952,14696,14439,14439,14951,16487,17255,2408,4457,5993,5993,5993,5993,5993,6249,6249,6505,7273,7529,6505,6249,6248,6248,6505,8554,8042,7275,6507,7531,6507,5739,6507,8301,11117,16749,17005,16493,4973,13165,15982,14702,15471,14959,15728,16240,16496,16752,16240,15472,16240,17008,17520,8816,6000,3440,4464,5743,4975,3951,3695,3440,3184,2672,2672,3440,20592,880.0001,624,368,17264,7792,8304,19058,18802,17522,17778,18035,18035,18292,19316,19573,21367,21623,8824,120,2424,13945,26490,23675,23931,24700,18302,6526,22142,17023,11391,13183,16255,17792,13185,19074,18563,18562,35971,17028,17797,29318,31115,33940,32154,25793,20188,14033,18136,14803,8401,11716,10433,8643,12211,20383,12464,11959,17308,20616,18068,21409,23970,25719,27028,27271,26742,29861,31387,32412,31393,29861,28836,32181,21198,31670,35004,34249,20686,40656,50133,40155,48870,34023,25303,24759,24502,25771,27041,28573,29598,31902,31905,32421,34471,34992,34978,34993,35028,35010,35261,34935,34854,34352,34374,34338,34324,34114,34110,34112,33842,34391,32694,27575,24491,23204,22434,21924,23720,25258,25261,24750,25006,26542,27054,28590,29103,31411,34751,34992,34950,35229,35237,35244,35542,35805,35800,35800,35794,35801,35812,35812,35822,35817,35794,35769,35757,36524,35499,22699,22956,35500,34989,36013,36012,35498,36007,36006,36007,36520,36776,36775,36774,36518,36517,36517,36515,36514,36512,36511,36511,36766,36765,36764,36762,36761,30871,29590,37270,36757,36756,36755,36755,37009,37264,37263,37263,37262,37262,37261,37003,36490,36488,36487,36486,36486,36485,36485,36740,36482,36482,36480,36479,36479,36478,36477,36221,35964,35964,35963,36219,36729,36985,36984,37239,38007,39286,32117,15477,16501,18292,20594,20594,21106,21106,20337,21104,20080,22639,22382,22894,22638,22125,24173,26221,28267,27499,23146,20586,17001,16745,14952,13416,13927,13415,13158,13413,13924,14434,14434,14434,14433,14433
14004,13494,13494,14004,14774,15031,15033,15033,15290,15803,16059,16060,16319,16319,16063,16064,16064,16065,16065,16065,16065,16066,14530,14019,14020,13509,13253,13252,13259,13242,13152,12884,12684,12453,12433,12439,12432,12384,12379,11848,11855,12600,13083,14346,14604,14857,15112,15624,16135,15112,14857,14858,14346,13069,13065,12558,11544,11583,12331,13056,14336,14592,12861,10403,9904,11187,11691,11690,11180,9901,6573,4525,3756,3243,3498,4264,6567,7847,8614,7078,20645,27814,27542,27805,27809,29342,28572,29339,29594,29850,29593,29591,29846,29846,29845,29844,29843,30098,29586,30097,30097,30352,30605,30860,30859,30858,30346,30345,29831,30087,30342,30854,30086,30341,29572,30339,30339,30338,29825,29824,29822,29822,29565,29565,28797,28797,29307,29306,29305,29562,29564,29307,29050,29025,28549,28798,29306,29560,29815,29813,29813,29045,27254,14455,21621,24949,22389,20596,20340,20084,19572,19315,18803,18547,18290,17778,17266,17009,17521,17521,17008,16752,16240,15983,15727,15982,16237,16749,15981,16749,16748,15980,17004,17516,2412,15212,17259,16747,16235,15979,15467,15211,15211,15209,14953,13929,13929,13161,13161,13417,14440,14696,14439,14439,15207,16487,16487,871.0001,4200,5481,5993,5993,5993,6249,7017,7017,7273,6505,6249,5992,6248,6248,6248,7529,8554,8042,7530,8042,7531,5739,6507,6507,5485,8045,14445,15981,16749,7533,8045,17773,15214,15726,15214,15727,16239,16495,16239,16239,14703,15727,16495,17519,9327,6255,4207,4976,5999,5231,3439,3439,3184,2672,2672,2672,3184,23152,1904,1136,112,15984,9840,3184,19056,20080,19057,19057,19058,18290,19059,20340,21621,21367,21623,6520,120,120,120,12666,24699,25467,25980,19580,6012,20606,18046,11901,12926,15743,19328,11904,22145,19841,12161,23682,17028,16261,29062,31627,31892,25755,22718,20960,16848,13271,10962,7889,9157,12480,9922,12212,19359,12205,12980,17330,21662,18053,21137,24221,25761,27523,26738,25969,29608,32160,31647,30882,30370,31906,27311,24013,33721,33980,35275,22222,31696,33493,43738,42725,29159,22487,23734,24245,25771,26786,28574,29854,32158,32161,32677,34471,34991,34975,34990,35023,35014,35271,34955,34856,34617,34349,34325,34358,33919,33874,33865,33588,33592,31909,27064,23984,22949,22434,22180,24231,25258,25261,24750,25006,27054,27822,28590,29103,31409,34750,34999,34947,35227,35249,35264,35556,35806,35801,35800,35795,35801,35815,36323,36323,36324,36305,35769,35759,37291,28587,18604,32429,35500,36013,35501,36012,36010,36007,36007,36008,36520,36776,36775,36775,36518,36517,36517,36516,36514,36512,36511,36511,36766,36765,36764,36762,36761,31127,29078,37270,36757,36756,36755,36754,37009,37264,37263,37263,37261,37261,37260,37003,36490,36488,36487,36486,36486,36485,36485,36740,36482,36482,36481,36480,36480,36479,36477,36221,36220,35964,35963,36219,36474,36730,36473,36727,36471,37750,36213,29557,32628,33908,35186,34674,32369,34161,33392,32624,27504,34158,36205,36205,35949,35180,31084,26988,20587,15467,13162,12650,14953,15465,15463,15463,14950,14950,14693,14693,14692,14690,14434,14690,14689,14689
16565,15542,16054,16054,15286,15543,15289,16058,16059,16061,16573,15295,16063,15039,15809,15554,16322,15554,16066,15298,15555,15555,15556,15557,15814,15558,15557,15305,15304,15046,15211,14933,14971,14749,14974,14730,14496,14449,13920,13894,12622,13896,12317,13324,12045,12301,11273,12040,10503,11528,13064,11528,14601,13834,13838,13845,14363,14909,16185,14848,14592,12289,11383,11953,11698,11183,11694,11950,11951,11951,8622,5294,3757,3756,3499,3754,7080,8103,8870,7078,21157,29861,29079,29084,30113,30880,31389,31644,31131,30618,30361,30359,30102,30358,30357,30357,30355,30354,30353,30609,30352,30351,30093,30092,29835,29834,31114,31881,30855,31367,31110,31110,30341,31109,31364,30083,30339,30338,30336,30592,30846,30845,30333,30333,30333,30845,29052,30844,30332,30332,30331,29819,29818,29793,29567,29565,29561,28536,29302,29558,29558,29046,27509,10870,23924,21620,19828,19315,19315,19315,19059,18802,18290,18034,17777,17265,17265,17520,17520,17264,17263,17263,17007,17005,16493,16749,17005,17260,17260,17260,17004,18027,17515,16747,3947,17515,17259,17003,16233,15977,15721,15209,15465,15465,14952,13928,13928,13928,13416,13928,14696,14951,14439,14695,15975,17511,13927,359,3687,5224,5481,5737,6249,6505,7273,7785,7273,6249,5992,5736,5992,6248,6248,7273,8554,8298,7786,7530,7274,7274,7274,6506,5227,5227,10091,17773,15469,15469,6253,17773,15980,16236,15468,15981,16493,14445,15725,15213,14702,15470,16494,17518,9327,6511,5487,5231,5743,4975,3183,3184,2672,3184,3184,2672,2672,23664,4976,624,624,11120,16496,368,19312,20592,19569,19313,18801,18802,19058,19571,20597,21110,21367,21623,11127,1400,2424,2424,1146,14714,27259,24700,7548,11900,18300,12157,12412,15484,19071,20607,29056,14976,28287,12673,11907,15237,28295,32395,32149,22679,23995,19419,13262,12245,10194,9424,8132,13503,10435,12213,20386,12709,13998,17314,22445,17564,23160,23937,26269,28320,25715,27484,28836,32169,32417,30112,34468,38565,28583,30142,33983,35516,35018,21193,32208,31701,38618,30434,22757,22231,22708,23983,24753,27044,28832,30111,32414,32160,32676,34469,34987,34980,34986,35016,35264,35271,35238,35122,35120,34611,34312,34435,34226,33900,33615,33340,32300,30576,24255,24245,22443,22438,22440,23209,25003,25005,24750,25008,28080,28591,29358,29616,30387,35011,35003,34945,35215,35252,35281,35558,35809,35804,35805,35800,35802,36326,36326,36315,36307,36305,35770,35501,35244,19373,26028,37548,35758,35757,36013,36268,36266,36265,36521,36521,36777,36776,36775,36775,36775,36774,36773,36772,36770,36769,36768,36768,36767,36766,36765,36763,36761,32920,28055,37014,36758,36757,36756,36754,37008,37264,37263,37262,37260,37260,37259,37003,36746,36746,36744,36743,36743,36742,36741,36741,36483,36482,36481,36481,36480,36479,36477,36477,36989,36733,36732,36476,36219,35963,35706,35704,35703,35702,35957,36213,38260,37236,38770,38258,36464,37488,37743,35439,26991,32365,31852,26220,20332,17003,13419,13419,13418,13930,14441,14953,15464,15720,15718,15462,15461,14949,14948,14948,15202,15202,14945,15201,15201,15200
15285,14774,15286,15286,14775,16056,15546,15546,15804,16062,16830,15807,16063,15552,15810,16066,16578,16578,16835,16579,16323,16324,16070,15303,14535,14023,14024,14023,14023,14025,12922,12636,12649,12678,12666,12154,12186,12151,11876,12620,12619,14417,13856,14858,14349,14862,14860,14345,14344,14344,14600,13832,14344,13833,13326,12054,11544,11567,12091,11520,11008,9030,9889,10934,11956,12719,15023,15791,14511,13999,8622,5294,4013,4012,3755,4010,7080,8359,8614,7078,17316,29601,30360,30368,31395,31645,31901,32156,32155,31898,31641,30871,30358,30358,30357,30356,30355,30354,30865,30865,30863,30863,30605,30604,30603,30858,30858,31113,31367,31367,31878,31366,31109,31365,31364,31107,30851,31362,31360,31104,30846,30589,30333,30333,30845,31101,30588,31612,31356,31356,31099,31099,30586,30304,31358,29820,29561,29815,29046,29302,29558,29046,24181,9333,23156,19572,19060,18803,19059,19315,19059,18802,18290,18034,17776,17520,17520,17775,17519,17263,17262,17262,17262,17261,17005,17005,17261,17260,17260,17516,17260,18027,17259,13931,8043,17771,17515,17259,16489,16233,15977,15465,15465,15465,14952,14440,13160,13160,13416,13928,14439,14695,13927,14951,15975,17511,11879,359,3687,5224,5481,5993,6249,6505,7273,7273,6505,6249,5736,5736,5992,6248,7272,8041,8554,8298,8042,7530,7274,7274,7274,7018,6251,7019,7531,12653,17517,15213,12653,17517,15979,15467,15467,14957,13933,15981,15213,14445,14958,15470,17006,18030,10095,7279,6255,5487,5743,4975,3183,3184,2672,3184,3440,3184,1392,24688,8048,368,112,8560,17520,112,17520,19568,20337,20081,19313,18802,19058,19827,20853,21110,21367,21623,22903,10360,7544,1144,9850,634,4219,19324,6523,15228,18812,12924,11643,14972,17278,21887,26240,15999,38014,28544,12419,13957,29575,31627,30356,22169,22454,14813,12241,12761,13272,11472,8644,12736,11202,12469,21411,12195,12456,16796,23966,17580,22164,25205,25720,26265,26760,27721,29560,33444,32174,35491,45480,47528,36263,29625,33466,36027,36296,21454,30928,29140,28377,23521,21733,21720,21940,23213,25009,27301,29089,30112,32417,32417,32676,34725,34991,34978,34984,35015,35265,35256,35248,35123,35118,35107,34883,34752,33997,33682,33362,33084,31275,28234,25244,22977,22192,22443,22698,23466,25002,25005,25006,25008,28592,29104,29872,29874,30651,35015,34986,34917,35172,35219,35264,35557,35812,35809,35805,35800,35801,36327,36323,36310,36292,36299,36538,36527,28076,20653,33709,35757,35758,35757,36269,36525,36522,36777,36777,36777,36777,36777,36776,36775,36775,36774,36773,36772,36770,36769,36768,36768,36767,36766,36765,36763,36506,33176,27287,37015,36758,36757,36756,36754,37009,37263,37262,37261,37260,37260,37259,37003,36746,36746,36744,36743,36743,36742,36741,36741,36484,36482,36481,36481,36480,36479,36478,36478,36990,36990,36733,36477,35964,35708,35450,35449,35192,35190,35445,35957,36212,36980,37746,37490,39024,36719,33134,26990,18030,15725,13932,14700,15468,15467,15467,14699,14953,15209,15464,15464,15719,15975,15718,15718,15717,15205,15203,15203,15714,15714,15201,15713,15712,15712
16309,16310,16310,16566,15799,15800,16058,16060,16316,15806,16318,16063,16319,16577,15554,16066,16066,16579,16323,16579,16323,16325,17606,17351,16583,16071,15816,15815,16073,16080,16779,16730,16477,16515,15995,15966,15757,15230,14695,14683,14400,15190,13857,14345,12810,12557,12300,12041,13064,12296,13064,13064,12552,12809,14858,13837,14863,15647,13880,10496,8220,8586,11184,11958,11699,10927,10929,11185,11695,11951,9134,5294,4525,4012,4011,4266,7080,8360,10150,9125,11175,31129,30112,30627,31395,31647,32158,32668,32667,32666,32153,31639,31126,31126,30867,30867,30866,30866,31121,31121,31119,31118,31629,31627,31370,31370,33162,32649,32903,32903,32390,31622,32389,32388,32388,32643,31618,32385,30080,30078,30846,31613,31613,31357,31357,31101,30844,30588,30588,31356,30331,31098,32634,32864,31868,32124,31095,29559,28534,28534,29046,28534,18293,11381,22644,20595,19571,19058,19570,19570,19314,19056,18544,18288,18031,17775,18031,18031,17774,17518,17517,17517,17517,17516,17260,16749,17260,17260,17259,17515,17771,17771,18283,10347,12395,17515,17769,17513,16745,16233,15977,15465,15721,15464,14952,13928,12904,12904,13160,13416,13927,13927,13927,14695,15974,17254,7526,614,3687,4968,5481,5993,6504,7016,7016,7016,6248,5992,5736,5736,6248,7272,8040,8297,8296,8042,8042,7530,7530,7274,7274,7018,6507,5995,7275,9835,16747,15979,16235,12907,11883,15979,13419,15979,14699,14957,14701,13421,14957,15981,17517,18542,11118,8046,6510,5742,5743,4975,3183,3183,2671,3184,3440,3184,1136,24688,12656,368,368,4208,19824,880.0001,13936,20080,19825,18545,19057,18546,18802,19315,20340,20854,20854,21111,21111,12663,20855,18808,7802,1146,3962,4475,2171,12155,17276,12411,13178,13435,16765,18814,18559,12926,27006,29312,14978,12932,25989,32137,28307,19866,19119,13536,15063,15325,13017,13265,9925,12225,12484,12470,22435,12191,10659,14487,24985,18332,21656,25995,26997,28283,28290,27219,30056,32120,36784,54965,57775,56240,47016,34743,29886,31685,36552,21451,31440,30675,28889,25569,22248,21723,21946,22954,25266,27302,29091,30113,32162,32419,32677,34984,34991,34984,34993,35008,35268,35260,35242,35140,35119,35102,34972,34780,33999,33716,33381,33086,29218,29246,25958,22981,22199,22446,22697,23465,25001,25004,25006,25008,27825,28850,29619,29623,30651,35024,34979,34949,35190,35193,35237,35530,35804,35811,35804,35799,35798,36327,36579,36562,36278,36294,35513,34477,19119,29103,34991,35503,35503,36270,36526,36525,36778,36777,36777,36777,36777,36777,36776,36775,36775,36774,36773,36772,36770,36769,36768,36768,36767,36766,36765,36763,37018,33944,25495,37527,36758,36757,36756,36754,37009,37263,37262,37261,37260,37260,37259,37003,36746,36746,36744,36743,36742,36742,36741,36740,36482,36482,36481,36480,36480,36479,36478,36478,36989,36989,36732,36476,35962,35706,35449,35449,35190,35446,35701,36724,37236,36466,33137,28529,22383,16750,14445,13421,14445,14444,15211,16235,15979,15721,15465,15209,15464,15464,15719,15719,15462,15718,15717,15717,15717,15203,15202,15202,15714,15713,15713,15712,15712,15711
16053,15798,15799,16311,16055,17081,16571,16316,17853,17342,17598,17087,16064,15809,17346,17603,16835,17603,16579,17347,16835,17093,15302,15303,14791,14792,14794,14536,14537,14548,13983,13916,13918,13943,13940,13849,13912,13963,12899,13411,13887,15193,15142,15626,15624,15626,15114,15114,14601,13833,13833,13832,13832,13321,12297,11532,11020,9750,9002,8735,8536,10657,11182,12979,15026,15794,16049,15537,13487,12719,10926,5806,5805,4012,4267,4522,6568,8360,9895,9125,7079,31123,31651,32164,32675,33188,33438,33436,32923,32666,32153,31895,31894,31638,31635,31635,31634,31634,31889,31889,32143,32142,32653,32395,32650,32394,33930,32649,32135,31366,32133,32134,32389,32388,31876,32131,31874,31873,30592,30590,31357,31357,31612,32125,32381,32381,31868,31612,31100,32636,31867,31866,32634,33120,32635,31357,30582,29302,28021,27254,26742,25973,11381,15989,21108,20851,19827,19570,19826,19826,19570,19312,18800,18544,18287,18031,18287,18286,18286,18286,18285,18285,18285,17772,17516,17260,17516,17771,17771,17771,18539,17769,20073,8553,17257,18537,18025,18025,17001,16488,16232,15976,15720,15464,14696,13928,12903,12903,12647,12903,13415,13927,13414,14438,15974,17254,5478,1126,3685,4966,5479,5992,6504,7272,6504,5736,5736,5736,5736,5992,7272,8039,8039,8039,7784,8041,8042,7786,7786,7530,7274,6506,6506,6250,6250,7019,12907,17515,15467,15467,3178,15978,15210,14443,14955,13419,14955,15467,15981,17005,17773,19054,11886,8302,7278,6254,5743,4975,3183,3183,2671,3184,3440,3184,1393,23921,14705,881.0001,1137,2417,20849,3185,10096,21104,20592,19313,19057,18545,19058,19315,20084,20598,20598,20855,17782,13175,23671,26231,26488,18041,5498,1403,2682,7547,8827,11643,11130,14714,16508,18558,12415,11902,22910,26494,19073,12930,20355,31367,28560,16536,15019,13537,15324,15583,10459,16085,10439,11970,13510,12982,21924,12701,10657,12181,24980,19600,21651,25504,27542,28031,27260,27994,30864,32114,34178,46773,54202,57520,58548,49843,36280,30661,33483,21710,31695,32465,27863,26593,25577,22492,22205,23466,25523,27559,29094,30371,32422,32679,32935,34988,34999,34986,34993,35008,35269,35224,35162,35129,35124,35111,35005,34778,33994,33722,33417,33095,27420,34876,28996,24481,22206,22452,22699,23466,25003,25004,25006,25008,27313,28851,29622,29629,30661,35015,34946,34921,35172,35180,35481,35516,35795,35806,35802,35799,35795,36327,36583,36567,35254,35786,36538,23724,23215,34479,37295,36527,36271,36526,36526,36781,36778,36777,36777,36777,36778,36777,36776,36775,36775,36774,36774,36773,36771,36771,36769,36768,36767,36766,36765,36764,37018,34714,24472,37527,36758,36756,36755,36754,37009,37263,37262,37261,37260,37260,37259,37002,36746,36746,36744,36743,36742,36742,36741,36740,36482,36482,36481,36480,36480,36479,36478,36478,36989,36989,36732,36476,35962,35706,35449,35449,35446,35702,36725,34164,23668,18034,13937,13937,15215,14958,15213,13933,17005,15212,14955,15979,15211,15721,15721,15721,15720,15720,15975,15975,15718,15718,15717,15717,15717,15715,15714,15714,15713,15713,15712,15968,15968,15967
18614,19127,18615,19639,18616,18617,18875,18109,19133,18110,18623,18111,17344,17857,18371,18627,17859,18117,17349,17861,17861,18373,18119,17864,18120,18120,18632,18888,18889,18893,18866,19047,19035,19051,18297,18775,18272,18065,17757,16989,15935,15956,15140,15372,15111,14856,12041,12042,10761,12041,12297,12296,13320,12807,14601,14860,12045,8980,9758,10026,10072,12711,12209,13490,12721,11185,10418,10674,11953,12975,12462,6574,5293,3756,4267,5034,7080,9127,8359,9382,5284,29594,32932,32932,33697,33952,33181,33436,33179,33178,31897,31639,31638,31636,31123,30867,30866,30865,31631,30607,30606,31373,30092,29834,31113,30089,31113,30855,30854,31878,31878,33157,32388,32644,31875,31875,32130,32385,32128,31870,31358,30846,31357,31357,32124,32636,32379,34427,33147,32635,32378,34169,32121,32102,32114,29565,30837,27767,26485,24181,22645,22133,3700,19828,20339,21363,20083,19826,19826,19826,19568,19312,18799,18543,18543,18286,18542,18798,19054,19054,19053,19053,19053,19052,18028,18028,18283,18283,18283,18283,18537,18537,18025,9321,19049,19049,18793,18793,17768,17000,16744,16488,16232,15464,14439,13927,12647,12391,12135,12391,13158,13414,13415,14695,16230,17510,4454,1894,3943,4967,5479,5992,6248,6248,5992,5992,5736,5736,5992,6503,8039,8295,8039,7783,7528,8041,8041,8041,8042,7786,7530,7018,7530,7274,7018,5738,8810,16234,16746,19051,8042,9066,16746,15978,15722,15723,16235,16235,16493,19565,20589,18542,12398,8814,5742,5998,4974,3950,3182,3183,2671,3183,3439,3439,2416,22640,20080,1904,1648,880.0001,19568,7024,3696,21360,21360,19824,19569,19057,19313,19571,19828,20084,20598,22646,11639,15735,22902,25718,25464,28025,23417,1146,3706,6522,3451,3195,6010,8826,13180,19070,11390,15741,27261,29310,21373,12670,16256,25220,26760,15767,12200,14045,14050,11993,11736,17107,14024,13502,15551,12982,21668,14746,11169,12178,25492,20629,20373,24725,26532,27292,28292,29771,29848,33697,37498,31106,40376,53182,58798,57783,50114,38082,30921,24782,30923,31439,23764,24030,27876,26075,20931,24232,25524,27815,29351,30886,32425,32935,33193,35506,35513,35259,35250,35236,35190,35126,35105,35115,35119,35112,34988,34776,33997,33465,34731,30031,28185,42026,31040,25192,22211,22460,22702,23465,25004,25006,25009,25010,27312,28595,29112,29638,30679,34963,34662,34916,35432,34928,35471,35261,36036,36306,36307,36311,35795,35811,35815,35544,37301,37571,28091,17835,32688,36528,35759,35503,36784,36783,36783,36782,36779,36778,36778,36778,36778,36777,36776,36776,36776,36775,36774,36772,36771,36769,36768,36768,36767,36767,36766,36763,36761,35480,23959,37270,37013,37013,37012,37011,37008,37262,37261,37260,37515,37515,37515,37515,36746,36746,36744,36743,36742,36742,36741,36740,36738,36738,36737,36736,36735,36735,36734,36733,36989,36989,36732,36474,35962,35705,35448,35448,35445,37493,37492,24946,15474,15985,16241,15984,15983,15982,15469,15725,15724,15724,15723,16235,16235,16233,16232,16232,16232,16231,16231,16231,15718,15718,15717,15717,15971,15715,15714,15714,15969,15969,15968,15968,15711,15711
17078,17335,16055,17079,16312,17081,17595,17085,18621,18366,18622,18111,17088,17089,18627,18371,17859,18117,17861,18373,18629,18885,18119,17608,16840,16328,16072,16072,16073,16589,15815,16238,15967,16485,15733,16486,16245,16529,16476,16219,16197,16713,16943,17430,18441,18184,18697,17674,15625,16905,16137,15369,14600,13834,16648,14858,8716,7697,8742,10016,9055,10930,12467,14003,14770,15538,16818,16818,15793,14767,11950,6062,4013,3756,4267,5802,6312,8104,9895,9894,5280,25497,31908,32932,34209,34976,33181,32924,32155,31386,31129,31127,31126,30868,30355,30099,30098,30097,30095,29839,29838,29325,29068,28554,27017,28297,28553,28551,28550,29062,28549,30853,30852,32387,31363,31362,31104,30848,30591,30589,31101,31613,32381,32380,32124,31612,33403,33915,32635,32891,32890,32889,31353,30310,30067,27773,26741,24438,22645,23413,21365,17781,2676,22388,20083,20850,20338,20080,20080,20080,19824,19567,19055,18799,18542,18030,18542,19054,19053,19053,19052,19052,19052,19051,18539,18539,18539,18539,18537,18537,18025,19816,14440,9832,19304,19560,19304,18792,18024,17511,17255,16743,15975,15207,13927,13159,12646,12390,12134,12390,12902,13158,13158,13926,16230,17254,7014,1638,3686,4198,4966,5478,5990,5735,5991,5991,6247,5991,6503,7783,8295,8039,7783,7783,7528,7785,8041,8553,8553,8297,7786,7274,7273,7017,7785,6250,8042,12650,17514,19050,16489,5481,16489,19306,18026,16746,17003,19307,20075,17515,10091,7533,3181,2157,1389,2157,2670,2670,2670,3182,2670,3182,3439,3439,1903,22895,22127,2671,1647,367,17007,11375,2159,20335,20848,19824,19312,18801,19313,19570,20083,20852,21108,20854,8310,20598,24950,24438,25463,27256,19833,1914,22137,8058,7802,3450,1914,2426,7036,10876,8062,13949,17277,23676,22652,12924,16253,18817,23430,16020,13221,15575,16096,10454,15574,15827,16073,12478,15549,13237,22691,13977,10402,12695,24979,21398,20116,24724,27547,29099,28317,29525,28286,31642,37030,23686,15239,37040,51641,57269,58302,51138,39628,31431,30156,27854,22228,23774,27366,27614,22471,23723,25274,27564,29101,31148,32432,32948,33211,35773,35507,35225,35168,35106,35095,35102,35147,35140,35115,35111,34969,34773,34759,34489,33469,27747,32810,46369,32333,24134,22178,22209,22703,23724,24748,25006,25010,24756,27061,28600,29125,29647,30118,34665,34914,34929,35456,34952,35487,35272,36035,36304,36309,36309,35795,36579,37351,36824,36274,29886,17598,29359,36784,35503,37039,36783,36784,36783,36783,36782,36779,36778,36778,36778,36778,36777,36776,36776,36776,36775,36774,37029,36771,36769,36768,36768,36767,36766,36765,36763,36761,36248,24471,37270,37013,37013,37012,37010,37008,37262,37261,37260,37515,37515,37515,37515,36746,36744,36743,36742,36742,36741,36740,36740,36738,36737,36736,36736,36735,36735,36734,36733,36988,36988,36730,36474,35961,35705,35448,35704,36725,35957,38004,24946,15730,16241,16496,16240,16237,16237,15724,15980,15980,15979,15977,16233,16489,16488,16488,16488,16487,16487,16486,16486,15717,15717,15715,15715,15715,15714,15713,15713,15968,15968,15967,15967,15711,15710
17846,18615,16823,18359,17080,17082,16828,16317,16317,15806,16318,16064,16065,15810,16067,16323,16323,16069,16581,16325,16325,16582,16327,16072,15816,15560,15817,16073,16585,17101,17872,19071,18271,19554,19055,20034,19483,20100,19294,18770,18257,17728,17471,17444,17425,16905,15626,13834,14602,14346,12293,12293,11528,14602,20486,18438,11784,10509,10781,12842,13912,14779,15030,15540,14003,12979,12722,12722,12209,11951,11950,7342,3245,4012,3755,5291,4522,6058,9130,8362,5785,20383,34724,36004,37281,38048,38813,38812,38811,39066,38553,38551,38550,38292,37523,37267,37010,37009,37007,36751,35982,34701,34444,31370,19593,23689,22665,23687,25990,18566,22149,24965,26756,28547,28803,30082,30080,30336,31615,31869,31101,30333,30589,31612,32892,33147,32635,33147,35451,35707,34426,30583,31353,29543,25197,24701,22645,23414,21877,21877,22388,15988,7795,21619,19570,20594,20594,20592,20592,20080,19823,19311,19054,18798,18798,18285,18797,18797,19053,19053,19052,19052,19052,18795,18539,18539,18795,18795,18793,18793,19561,20072,8552,13928,19560,19816,19560,19304,18279,17767,17511,16999,15463,14439,13414,12902,12390,12134,11878,11878,12646,12902,12902,13926,15462,17766,9830,2149,3942,4198,4965,4965,5478,5735,5991,5991,6247,6503,7783,8039,8039,7783,7527,7527,7528,7785,8297,8809,9833,8809,8041,7785,8553,8809,7785,5481,7273,9065,14441,14698,13929,8553,10601,11369,12649,11370,10602,10346,8811,6251,2155,1131,1389,2669,3181,1645,2669,2669,2669,3182,3182,3182,3438,3438,2158,21358,24430,5486,1134,366,12910,15726,111,18031,20079,19824,19312,18800,19313,19570,20083,20596,19572,15732,11638,23414,24180,24693,26487,27256,19832,3193,28793,9081,12410,11386,7290,4986,3196,3196,3710,11389,15997,21372,23419,13947,17532,20352,18824,15763,14755,19659,18652,11984,15570,15061,17610,13499,15548,12471,23213,14495,9886,12182,24468,22164,20115,24466,27288,29085,29098,29010,30853,31363,36256,24484,10114,16009,35761,50619,57021,59083,51914,37581,31696,25811,23510,24543,27625,28901,23758,23729,24772,27327,28864,31170,32445,33197,33416,35942,35385,35078,35074,35086,35139,35194,35238,35190,35119,35106,34947,34769,34765,34484,31423,29570,40249,49440,33622,22853,22114,22200,22963,24488,24747,25005,25011,24759,27068,28359,28882,29874,29545,34667,34921,35449,35496,35024,36055,35280,36036,36300,36309,36305,36307,35811,37863,36825,29872,17335,27324,36783,37552,35759,36784,37040,36783,36783,36783,36782,36779,36778,36778,36778,36779,36779,36777,36776,36776,36775,36774,37029,36771,36769,36768,36768,36767,36766,36765,36763,36505,37016,25495,37014,37013,37013,37012,37010,37008,37262,37261,37260,37515,37515,37515,37515,36746,36744,36743,36742,36742,36741,36740,36740,36738,36737,36736,36736,36735,36735,36734,36733,36988,36988,36730,36474,35961,35705,35448,35702,36981,35444,38514,24946,15985,16497,16752,16496,16493,16493,16236,16236,16236,16235,16233,16489,16745,16744,16744,16744,16743,16743,16742,16486,16229,15973,15715,15715,15714,15714,15713,15969,15968,15968,15967,15967,15710,15710
18870,19639,17079,18104,17081,17082,16829,16573,15806,15296,15296,14529,15554,15556,15813,16069,16581,16325,16837,16069,15813,15046,14536,14024,14024,14026,14026,14026,14027,14799,15577,16023,14685,15710,13933,14716,13404,13957,13926,14415,15188,15164,15694,15660,16149,16138,17674,15626,17162,14346,8705,8451,6406,12809,18949,16389,11783,12816,12320,13103,14439,15287,13495,14773,16051,16563,17843,18098,17329,16816,15790,11182,4269,4012,2732,4523,4522,5802,6314,6570,7062,19620,40612,41124,41633,42144,41886,41884,41371,41114,39577,39575,39574,39316,38547,38291,37778,37777,37519,37519,36750,34189,35468,31626,14729,20617,20615,20871,19590,1414,1925,4485,6531,7810,8322,11393,12416,14463,18814,21885,24957,26237,28285,28796,29564,30075,32379,33147,33915,30843,31099,29815,24183,10343,19560,23168,21878,21622,21877,21877,22644,11124,13939,21363,21874,19826,21106,21104,21104,20592,20335,19823,19310,19054,19054,19053,19053,19053,19309,19565,19564,19564,19564,19307,18795,19051,19307,19561,19561,19561,19560,18280,5992,19048,20328,20328,20072,19816,19303,18791,18535,17767,16487,15463,14694,13926,13414,13158,12902,13158,13926,14438,14437,15205,16229,18789,10341,1637,3942,4198,4965,4965,5478,5478,6247,6247,7015,7783,8039,7783,7783,7527,7271,7527,7528,7785,8041,9321,9833,9833,8297,8041,8041,7273,7785,7529,6249,7529,7273,3178,2665,4969,3689,3433,2153,2410,3434,2154,2155,2155,3179,3435,1389,2669,2413,1645,2413,2669,2669,2670,2670,2670,3182,3182,3182,20078,25198,7790,3438,622,10094,19054,111,17519,20847,21104,20592,20336,20849,21106,21106,21620,20084,15220,16501,24181,23668,25716,26999,27255,16759,4984,29816,14712,10106,12409,11385,11642,9852,6012,3454,7549,11133,17020,20092,12156,16252,25728,16519,14482,13984,21699,19672,14028,10448,15828,17355,15802,15289,12215,22699,15263,10655,11420,24211,22931,20626,24466,26003,26521,29613,27738,30358,32913,35715,23710,11678,8362,25779,38070,49348,57037,59342,51152,38097,31189,28374,26078,28905,28902,23762,25011,25027,27311,28559,30812,32310,33054,33295,35844,35337,35104,35152,35213,35235,35231,35240,35220,35107,34863,34657,34517,34255,33722,29891,31896,44865,49956,35656,24401,22083,22166,22967,24497,24747,25261,25267,25019,27329,28624,29117,30071,29033,34666,34933,36004,35519,35022,36058,35022,35522,36041,36052,36048,35796,36836,35817,29402,17844,28599,35262,36525,36784,37040,35760,36528,36783,36783,36783,36782,36781,36780,36780,36780,36780,36779,37033,37033,37032,37032,37031,37031,36772,36771,36769,36768,36767,36767,36766,36764,36506,37016,25751,37014,37013,37013,37012,37010,37008,37262,37261,37260,37516,37515,37515,37259,36745,36488,36487,36485,36485,36484,36483,36483,36482,36481,36480,36480,36479,36479,36477,36732,36987,36987,36730,36474,35961,35705,35192,35446,35957,36467,38514,24434,15985,16497,16752,16495,16493,16492,16235,16235,16235,16234,16233,16489,16489,16488,16488,16488,16486,16486,16485,16485,16229,15973,15715,15715,15714,15714,15713,15969,15968,15968,15966,15966,15709,15709
24758,24503,23735,22712,21689,20924,21693,19135,20671,19137,18369,16579,15300,18117,15302,16326,16326,15559,14790,13510,15814,15048,15562,15563,14539,14539,14540,15820,16076,16079,15317,16552,17503,15957,15983,17022,18052,16787,17522,16209,18521,18752,17750,16946,15382,16140,18442,17672,17928,12296,6151,7178,5390,10254,17418,15629,11539,13334,12839,15673,16517,19127,17080,16311,16822,16310,14772,15027,14770,15025,15024,13486,4269,3757,4524,4268,4523,5288,5799,6055,8082,13990,39844,40356,40355,40609,40606,40348,40347,40346,39833,39575,39318,39062,38291,38035,37266,37010,36753,37009,37007,34446,35724,32139,13450,20873,20105,21127,20358,2438,2180,4994,7297,7041,3968,5504,2431,2686,3452,5756,7546,12154,15994,18041,18553,19833,22137,17018,16506,12666,11643,7289,4473,1129,16231,21121,21111,21877,20851,20851,22131,8564,19827,21875,21874,22130,22130,22128,21872,21616,20847,20591,20334,20334,19822,20077,19821,19821,19821,20077,20076,20332,20075,20075,19819,19819,19819,20587,20073,21353,21353,11112,14952,21608,21351,21607,21095,21095,20583,20326,20070,19814,19558,18790,17510,16998,15717,15461,13925,13925,13926,13158,12134,11366,12390,11366,7270,3942,3685,4197,4965,4965,5221,5990,6502,7527,8039,8039,7783,7527,7527,7527,7527,6503,7784,8041,8553,9321,9833,8809,8297,8041,8297,8041,7785,7529,7529,7529,7529,7530,3689,3177,1385,2665,2665,1385,3178,2666,1898,1898,2410,2667,2411,2411,2411,1899,2411,2411,2667,3181,2669,2669,2414,2414,2670,17774,22638,11118,1902,3438,7790,17774,879.0001,14703,21103,19823,19824,19568,19824,19824,18290,18546,17522,11379,17011,20083,20595,22899,23414,23670,12918,6519,21622,14967,6264,11128,10873,12410,18300,8316,4990,8317,8316,15997,17022,13950,13950,28033,21126,14991,11163,20652,19917,13001,11469,13011,17100,16315,16823,10932,22960,15516,12959,9371,24723,22417,20880,23182,26510,28567,28323,28247,30108,31404,35725,24967,11163,7884,24261,31415,37831,49362,55507,58320,51153,37586,32467,29400,33255,31460,26322,23478,25706,26413,28673,30464,32001,33045,33074,35684,35472,35238,35245,35248,35239,35234,35249,35239,34870,34605,34372,34261,32718,31422,27331,38579,47943,49447,38206,23896,22093,21856,22713,24500,25261,25772,25778,25533,25549,29119,29307,30818,28777,34417,35225,35540,35539,35019,36050,35011,35764,35530,35793,34775,37846,34790,24812,18654,30396,36783,36800,35504,36528,36528,36528,36526,36783,36783,36783,36783,36782,36782,36782,36782,37037,37036,37035,37033,37033,37032,37031,37031,36772,36771,36769,36769,36768,36767,36766,36764,36762,37016,26007,36758,37013,37013,37012,37010,37520,37519,37518,37517,37516,37515,37514,37257,36487,36230,36228,36228,36227,36226,36225,36225,35969,35968,35967,35967,35965,35964,35963,36219,36730,36730,36473,36216,35704,35190,34933,35445,35955,36466,38001,26225,15728,16240,16495,16238,16236,16235,15978,15978,15977,15977,15976,15976,15720,15719,15717,15717,15717,15716,15716,15973,16228,16229,16227,16227,15970,15970,15969,15969,16223,16222,16221,16221,16220,15964
20918,21687,21431,21176,20921,19900,22462,21184,21952,20673,21953,20931,17861,23493,22470,23751,24007,22472,23495,22214,23495,22217,18634,17355,15563,16075,15564,15564,14796,15311,15574,14784,15450,14933,14974,14470,13930,13948,14975,13908,13917,13125,14427,15161,17944,19724,22281,23048,22535,15624,6922,6925,5137,9238,19229,19992,15398,12331,9264,13141,13212,12212,14008,14007,15030,15798,17845,19636,21683,22449,20400,17582,5805,4269,3500,4012,3243,3496,4522,5028,6039,10918,39332,39332,40099,39841,40094,39836,39835,39834,39577,39319,39062,38806,38035,37779,37010,36754,36497,36753,36751,33934,35980,32651,12938,21127,19335,20102,21125,3461,2178,4994,7041,6528,4224,6014,3453,3965,4476,7034,8826,12410,15482,17017,16505,17016,17017,8826,4474,3706,5755,4473,5241,1644,14948,22402,23159,22645,20850,22130,20594,5491,21618,23154,22640,22896,22640,22639,22383,22127,21358,21102,20845,20845,20589,20588,20332,20332,20588,21100,21099,21355,21099,21097,20329,19817,19049,20329,19304,19048,16744,10343,13159,16743,15719,14951,13159,12391,10598,9318,8038,7014,4966,4198,2149,1125,357,357,613,613,1124,1124,869.0001,869.0001,1125,1893,1893,1637,3685,3941,4452,4964,5476,5988,7525,8550,7782,6502,5990,5990,6502,7270,7526,8038,8295,8552,9320,8808,8808,8296,8040,8040,8296,8296,7784,7528,7528,7528,7528,7529,3944,4200,2408,2664,2408,1385,2409,1641,2666,2154,1898,2154,1899,1899,2155,1899,2155,3435,3691,3693,3693,2669,2413,2413,2413,7789,10349,5997,4205,5485,2669,5229,1646,5742,3951,1903,3439,3696,3952,3952,2672,3953,5745,1905,4978,3442,1905,1906,3700,5492,2420,1654,5238,4470,4983,10615,11128,13176,16251,10107,10876,12412,10364,13948,14720,11904,14719,26497,20357,16012,10648,17578,16068,13511,12240,12757,15566,17596,15285,10420,23217,15776,13989,10137,23698,21135,21134,23181,26770,28566,28319,28252,29844,31421,35505,26000,10932,7149,19153,32444,32204,35797,47579,54228,57553,52691,40659,32215,34019,33505,25555,24757,26177,26647,28461,30811,31878,32923,33192,35501,35510,35256,35243,35247,35238,35230,35249,35253,34881,34611,34358,33993,33231,28605,30655,43203,48461,49949,41784,24663,21846,21829,22414,24506,25265,26030,26043,25542,25795,29060,29538,31072,29038,33676,36051,35572,35524,34995,36030,35258,35513,35276,35285,35546,31959,19942,20461,30943,35773,37295,36545,36530,36273,36528,36528,36525,36783,36783,36783,36783,36783,36783,36783,36783,37037,37036,37035,37033,37033,37032,37031,37031,36772,36771,36769,36769,36768,36767,36766,36764,36762,37016,26007,36246,37013,37013,37012,37010,37520,37519,37518,37517,37516,37515,37514,37256,36487,36229,36228,36227,36227,36226,36224,36224,35967,35966,35965,35965,35965,35964,35963,35961,36473,36472,36215,35959,35446,35190,34933,35187,35954,36720,37487,26735,15726,15982,15981,16236,15978,15978,15976,15976,15976,15975,15974,15718,15462,14949,15461,15461,15460,15460,15459,15459,15971,16227,16226,16226,15969,15969,15968,15968,16221,16221,16220,16220,16986,16218
21942,22711,21431,20920,20409,19132,20670,18880,19905,19138,19650,19395,14021,19142,15815,18376,19400,16328,19912,18632,19657,19146,19402,17866,16331,17100,16076,16332,15822,16336,16593,14790,15462,14933,15487,16264,16761,16271,17539,18268,21080,21575,22613,21823,22047,21262,20236,20489,19462,15880,6922,5904,5143,8737,15398,17721,16470,14953,15214,18304,20396,20663,20663,20407,20406,20406,18613,17588,16307,14769,16048,15022,6061,3501,3756,4268,3243,3752,3240,5023,4253,5284,37028,39076,39331,39585,39838,39580,39579,39578,39321,39063,38806,38550,37779,37267,36754,36498,36241,36497,36495,33934,36492,33675,12682,20871,20358,20102,21637,2435,898.0001,3201,4480,5504,3198,5246,2429,3197,3452,5498,7290,10618,13177,14969,14968,15480,16505,8826,3193,2169,3449,3705,3705,1390,16733,23939,24183,22899,23154,23666,20082,9331,22642,23666,21616,21360,21360,21103,20335,20335,19054,18286,16749,16237,13933,13420,11884,11372,10860,10092,8299,7275,6507,6249,5225,4457,3689,3177,1640,3176,2664,871.0001,871.0001,359,102,102,358,358,358,357,357,613,613,869.0001,869.0001,869.0001,868.0001,1124,1637,1892,1892,1892,2148,2405,2661,2405,2660,4196,3684,3684,4452,4964,5476,7012,8293,8038,6502,5734,5478,5734,6246,6502,7526,8038,8551,9320,9320,8808,8296,8040,8040,8296,8552,8808,8040,7784,7528,7272,7272,7273,5480,4200,2408,2408,2408,2664,2665,3433,2665,2665,2153,2410,2154,2410,2154,2154,2410,2410,3178,2667,2667,2411,2411,2155,1901,1901,1901,2157,2413,1901,3437,4461,1902,5230,7535,8047,9327,10095,11632,12144,12912,12656,12144,10865,12657,12657,14705,12402,12660,11380,9332,10102,11638,11894,12663,13431,14455,15736,16506,14715,15227,15739,12410,11642,14717,13951,13438,12417,10884,17548,13976,10916,12987,15551,14539,12500,12240,18365,14775,10421,23479,16037,16549,10650,23187,20879,21901,23180,26763,28306,29084,28257,29573,31420,34999,27303,9437,8949,15311,32447,30410,26331,32479,48088,55764,58325,51413,40919,33247,31201,26325,25524,26250,26772,28576,30370,31651,32935,33194,35500,35505,35252,35240,35248,35246,35232,35244,35256,34898,34614,34340,33976,33489,26816,36281,47321,48238,52758,41778,24148,21591,21056,21853,23994,25279,26045,26056,25547,25742,29029,29288,31333,28807,34508,35322,35557,36015,34993,34491,36283,36037,36307,36570,26331,17368,25570,35305,36320,36544,36269,36288,36531,36529,36528,36528,36525,36783,36784,36784,36784,36784,36784,36784,36784,37037,37037,37036,37035,37033,37033,37032,37032,36774,36772,36771,36769,36768,36767,36766,36764,37018,37784,26263,35222,37014,37013,37012,37010,37520,37519,37518,37517,37516,37515,37514,37256,36487,36229,36228,36227,36226,36226,36224,36223,35967,35966,35965,35965,35965,35964,35963,35961,36473,36472,36215,35959,35446,35190,34933,35187,35698,36464,36719,28015,15726,15982,15981,16236,15978,15978,15976,15976,15975,15975,15974,15974,15462,14949,15460,15460,15460,15459,15459,15459,15971,15971,15970,15970,15713,15713,15712,15712,15965,15965,15964,15964,14938,14426
22198,23991,23479,22712,23481,23228,23743,22464,23745,23746,24258,25027,20677,24774,22215,23496,23496,19913,25290,24011,24524,24013,23756,23244,22989,22735,21711,22480,21200,20946,18897,11221,8058,8786,10355,12656,16226,17248,17032,15725,15967,14675,15184,14664,16164,16909,19468,21260,21004,17934,7447,6432,5159,7476,18773,21126,20645,17585,16820,17839,17077,15540,15799,15799,15542,15798,16565,17332,20659,21425,22192,19118,7853,3501,3500,3244,2731,3240,3496,5272,4257,3235,34980,38820,38563,39585,39326,39324,39323,39322,39065,38807,38550,38294,37267,37011,36498,36242,35985,36241,36239,33678,36748,34443,12426,20871,19846,19589,22916,3971,1154,3201,4480,5760,3454,5246,2173,3197,3964,5498,5498,7546,10617,12409,14456,15480,14713,7802,3705,4471,3449,3958,3705,3183,10331,15747,13942,13939,12658,10610,7282,2163,4466,5490,2672,1648,1392,1135,1135,879.0001,110,366,365,365,365,364,364,620,1132,1388,1131,1131,1131,1129,1129,1129,617,1897,1128,1896,872.0001,615,1127,871.0001,1382,1382,1638,1638,1382,1381,1381,1893,1893,1893,1125,1125,1124,1124,1380,1635,1891,1891,1636,1381,2405,3173,2660,1636,3428,3428,4452,4964,6244,7780,7525,7269,6501,6245,6245,6245,6245,7269,7525,8037,9318,9319,8807,8295,8039,8039,8039,8295,8808,8808,8040,7784,7528,7272,7016,7273,7528,4968,3176,2664,3176,2408,1897,1897,617,617,1385,1386,1898,1898,2154,2154,2666,3434,3946,3947,5739,6507,7531,8043,8811,9835,9323,11371,12395,12139,14443,13931,13165,12909,13934,14703,14703,14703,14448,14448,14448,14704,14704,15217,15473,15217,15473,15730,16244,14964,14452,14710,14454,14710,14711,14967,15223,14968,16250,15227,15995,16763,15226,12154,13948,12669,13949,11393,11140,13966,12952,9120,10934,16312,17353,14038,9937,17086,15541,10677,23741,16555,17574,11163,22676,20878,22668,22667,27017,28312,29344,28262,29576,31412,34730,28609,10735,7393,8130,31676,27333,17374,19675,34009,48343,55509,57557,55000,42461,34273,30166,24756,26307,27068,28835,30621,31906,33181,33439,35494,35500,35250,35243,35244,35245,35235,35243,35255,34913,34614,34590,33960,31442,28614,40628,48092,49044,52507,35634,25173,21075,21068,21826,23703,25284,26055,26062,25505,25705,29024,29280,31357,28094,35316,34293,36292,34467,36268,34995,34754,35531,31705,19676,20187,31448,36320,36327,36064,36289,36269,36287,36788,36530,36528,36528,36525,36784,36784,36784,36785,36784,36784,36784,36784,37039,37036,37035,37035,37033,37033,37032,37032,36774,36771,36769,36769,36768,36767,36766,36764,37274,38296,26263,34710,37014,37013,37012,37010,37520,37519,37518,37517,37516,37516,37515,37257,36487,36229,36228,36227,36226,36226,36224,36223,35967,35966,35965,35965,35965,35964,35963,35961,36473,36472,36215,35959,35446,35190,34933,35187,35698,36464,36463,28527,15726,15982,15981,16236,15978,15722,15720,15976,15975,15719,15974,15974,15206,14949,15716,15460,15460,15459,15459,15459,15715,15715,15714,15714,15457,15457,15456,15456,15709,15709,15708,15708,20314,24410
23479,23991,21944,20153,20411,19133,20415,20161,19394,18882,18883,19653,15302,19143,19399,19656,19913,15562,20171,18637,19662,20687,20174,19662,18895,18385,18899,19924,20182,20440,21214,14047,8336,7258,8539,15973,23650,22628,24696,22642,23399,22871,22606,21844,21545,22285,21770,22282,19728,17697,7468,6457,6480,7293,15265,15539,15800,15801,17595,17338,18106,19384,20152,20408,21431,21174,19638,17332,17331,15793,14512,14766,7853,3245,3500,3244,2475,3496,3240,2711,4006,932.0001,30628,38820,38307,39328,39326,39324,39323,39834,39321,39831,40086,39828,38803,38546,37521,37265,38031,37519,36750,34445,36746,32394,15753,18055,19078,18822,19333,5251,1921,3201,3712,4224,2430,3710,2173,3197,2682,3962,3449,4473,5241,4984,4472,4472,3704,3193,2167,1911,1401,1397,1143,1140,604,645,375,371,369,369,370,371,626,626,624,624,623,623,622,878.0001,622,621,621,877.0001,877.0001,876.0001,876.0001,1132,1131,1131,1131,1131,1129,1129,1129,1385,1384,1128,1128,1384,1640,1639,1383,1383,1126,1126,1126,1126,1125,1381,1637,1637,1637,1893,2148,2660,2660,2660,2404,2403,2147,2147,2148,2405,2660,3172,2404,1892,2148,4196,5220,5988,7266,7523,6500,7013,6245,6245,6501,6501,7525,7781,8293,8805,8806,8807,8295,8039,8039,8039,8295,8551,9063,9320,8808,7784,7272,7016,7016,7016,8039,6504,6504,8040,8808,9320,9064,10600,11113,11625,12905,13161,14953,16489,16233,16234,16234,16490,16490,15723,17259,17003,16747,16491,15723,15467,13931,13931,13419,13419,13419,13419,13931,13931,13933,13933,13935,13935,13935,13935,13936,13936,14448,14960,14961,14961,14961,15218,14964,14964,14964,14964,15220,14454,14966,13942,13943,14455,13178,15227,13434,15227,22394,13946,12669,12414,12926,14976,14468,12942,15512,13982,11443,16826,18120,16596,11473,15809,18868,10420,24000,16566,19626,12702,20628,18573,23947,23691,27020,28307,29338,28267,29310,31149,33961,30939,12269,8905,7862,24764,19905,18396,21470,27871,38105,47829,58070,59095,55001,43488,34774,29878,28096,28607,29609,30625,32158,32419,33961,36007,35756,35254,35239,35246,35238,35230,35244,35256,34423,34872,34590,33424,29646,35011,44463,46810,52155,46904,31030,26957,22868,21075,21831,23399,25289,26082,26038,25455,25701,29025,29298,31399,29668,33001,35292,36034,36004,34471,36017,37314,27341,17113,24031,34779,36057,36059,36070,36059,36549,36520,36545,36788,36786,36784,36784,36781,36784,36785,36785,36785,36784,36784,36784,36784,37037,37037,37036,37035,37035,37035,37033,37032,36772,36772,36771,36769,36768,36768,36767,36764,37273,38551,27286,34455,37013,37012,37011,37009,37008,37262,37261,37260,37515,37515,37514,37256,36486,36229,36228,36227,36226,36226,36224,36223,36223,36222,36221,36221,36220,36220,36219,36217,36472,36472,36215,35958,35445,35189,34932,35187,35441,36720,36463,30574,15982,15981,15980,15979,15978,15978,15976,15720,15719,15975,16230,16230,15461,14693,15716,14948,15460,15715,14691,15202,15715,16739,16482,15201,13153,13920,15968,18272,23645,25181,30556,33882,36698,37209
24503,25271,25528,24505,25275,24509,25791,26049,25282,25282,25283,26309,22982,26567,27335,25544,25545,21451,25549,24784,25041,25809,25297,24530,23763,24789,24791,24537,23771,23516,25821,15583,7856,8055,7785,13420,20070,18781,18021,15720,15976,15962,15691,16222,15915,17685,18966,19999,19747,18747,9033,6532,7334,9908,21174,23228,22460,19901,19135,20671,19134,16061,15290,15032,15543,14518,15030,14773,17843,18097,19376,18862,9901,2477,1196,2476,1963,2472,3496,3735,4262,676,23972,38819,38051,36000,37021,37019,35994,35737,33689,31895,28310,26260,24723,22930,20369,18833,15503,13455,11406,8589,8074,7562,1673,3719,1926,1158,3205,3203,1665,2433,1664,2176,894.0001,1406,1149,2429,1146,1658,1145,1657,3193,2424,1912,1911,1912,1913,1911,1910,1401,1141,1143,1396,1884,1923,2678,2419,2162,1137,882.0001,1138,1136,1136,1135,1135,1391,1390,1390,1134,1133,877.0001,876.0001,876.0001,876.0001,875.0001,875.0001,875.0001,1131,1131,1129,1129,1129,1128,1128,1128,1128,1640,1639,1127,871.0001,1126,1894,1894,1637,1381,1381,1381,2661,2404,1892,1893,1380,1636,2148,1892,1892,1636,2148,2147,2402,2402,2147,1892,1892,1892,2402,2402,2658,5474,6242,5474,6498,7011,5988,6244,6244,6244,6500,7268,8036,8548,9828,10085,8806,8294,8038,8038,8038,8294,8550,9318,10343,9831,9063,8039,7527,7271,7015,6248,7527,8551,12647,15975,18023,17256,16232,17512,16744,16744,17000,17001,16745,16745,16745,17257,17257,17001,16489,15466,16234,15722,15467,15211,15211,14955,12907,12907,13163,13163,13931,13931,13930,13931,13931,13931,13933,13934,14447,13935,13935,13935,12911,12912,12912,12912,12912,13426,13427,13427,13427,13428,12404,13430,12662,13942,12663,14711,11896,13946,11642,12922,31354,19834,15741,12926,12670,16000,15235,10894,15768,16798,11187,14523,15559,15828,14034,13505,19125,11702,23999,15801,19374,13986,20373,18317,23691,23947,27026,28563,29340,28538,29295,30885,33994,32247,15581,8623,8102,18877,17857,20691,25822,35803,35545,39125,49877,55255,59865,56543,44246,36026,31167,30399,30633,31648,32421,32933,34728,36009,35755,35252,35237,35244,35235,35228,35243,35254,34451,34614,34595,31862,29386,40131,47023,48853,53457,38758,31033,25935,22875,21071,21844,23374,25262,26040,25974,25447,25696,28269,29345,31962,29663,32985,35288,36036,36256,34728,35250,23487,18125,30680,35549,36058,36057,36058,36068,36059,36549,36518,36543,36788,36786,36784,36784,36781,36784,36785,36785,36785,36784,36784,36784,36784,37039,37037,37036,37035,37035,37033,37032,37032,36774,36772,36771,36769,36768,36767,36766,36764,37273,38295,27798,33686,37013,37012,37011,37009,37008,37262,37261,37260,37516,37515,37514,37256,36486,36228,36227,36227,36226,36224,36223,36223,36223,36222,36221,36221,36220,36220,36219,36217,36472,36471,36214,35958,35445,35189,34932,35186,35441,36975,36462,31342,16493,15981,15980,16235,15977,15976,15975,16231,16230,16486,16741,16741,15205,14692,16228,16484,14691,15459,13921,14690,12386,12898,16993,20321,26720,31328,33887,31582,36700,36700,36698,36442,35417,36185
21687,20664,20153,17849,17595,16317,17855,17090,17858,17859,17605,17094,12231,16839,16840,15817,18123,14029,17359,17618,18387,18900,16853,16342,16343,17625,17372,17118,16352,16353,19938,13023,5829,6002,6257,12396,20587,19302,22368,21350,21612,23137,22339,23630,22834,23585,23341,23612,22354,19534,11083,8627,8390,8896,17345,18113,17598,17083,18367,19648,19906,19648,20924,18104,19383,19895,21431,19894,15540,9906,9392,9135,6318,2477,1708,2220,2219,2728,2472,3735,4262,3492,7332,7331,6051,6304,5533,4507,2202,1433,921.0001,919.0001,918.0001,660,403,402,401,401,1167,399,1166,1165,3466,1674,3209,3975,3462,2182,645,1923,1921,2433,1920,1920,1662,1662,2429,2429,2170,2682,1913,2425,2425,1912,1656,1655,1656,1657,1655,1910,1657,1397,1398,1653,859.0001,1148,1654,1907,1394,1137,1394,1394,1648,1904,1903,1903,1391,1390,1390,1134,621,365,364,364,364,363,363,363,619,619,617,617,617,616,616,616,1384,1895,1895,1383,1127,1126,1126,1126,1381,1381,1381,1381,1125,1124,612,613,612,868.0001,1124,1380,1380,2146,2402,2658,2402,2146,3427,4196,6242,6498,7010,7778,8290,8290,5986,4194,4961,5729,5474,5986,7010,6242,6242,7522,8802,10082,9826,8802,8291,8036,8036,8292,8292,8548,8804,9828,10854,10343,9319,8551,7783,7271,7015,5991,5479,6247,10087,15463,18279,18023,17768,17768,19048,18536,18024,17769,17257,17001,17257,17257,17257,16489,15721,14442,15210,15210,14698,14442,13162,13930,12394,12906,13930,12138,13162,11882,12137,12138,12138,12139,12139,12139,12142,12142,11887,12143,12399,12912,12912,12912,12912,13170,13171,13171,13171,13172,12404,13174,12662,13942,11383,12407,11384,11898,11642,11386,36474,28026,19325,13438,11390,13952,16515,13967,15256,17822,11442,12985,11975,12754,18130,12227,20665,12476,24003,14015,19120,16036,19093,17805,23690,23946,27021,28565,29343,28547,29300,30139,33770,33514,20161,10643,6051,14778,20670,26055,33237,35285,25049,30678,36565,48087,57051,61150,57559,46271,37052,31933,30887,31133,32420,33443,34724,36008,35755,35253,35235,35241,35231,35226,35242,35255,34472,34622,33068,31061,34502,43973,47025,51664,46805,33938,32297,25928,22896,21076,21842,23376,25185,25968,25960,25444,25709,27036,29642,32487,29658,32973,35274,36028,36253,33706,19889,20156,35274,35286,36316,36824,36056,36057,36066,36056,36549,36770,36795,36789,36786,36784,36784,36781,36785,36785,36785,36785,36784,36784,36784,36784,37039,37037,37036,37036,37036,37033,37032,37032,36774,36772,36771,36769,36768,36767,36766,36764,37529,38295,28566,33174,37013,37012,37011,37009,37008,37262,37261,37260,37516,37515,37514,37256,36486,36228,36227,36227,36226,36224,36223,36223,36223,36222,36221,36221,36220,36220,36219,36217,36472,36471,36214,35958,35445,35189,34932,35186,35953,36463,36718,32622,16493,16493,16748,16235,16233,16232,16231,16487,16230,16230,15973,15717,16997,14948,12644,13924,13923,17251,20577,23650,30562,32610,36449,37985,38240,36704,35679,36190,35164,34908,32858,31066,27481,24409
