0,0,0,0,0,0,0,0,0,0,0,0,0,0,0,0,0,0,0,0,0,0,0,0,0,0,0,0,0,0,0,0,0,0,0,0,0,0,0,0,0,0,0,0,0,0,0,0,0,0,0,0,0,0,0,0,0,0,0,0,0,0,0,0,0,0,0,0,0,0,0,0,0,0,0,0,0,0,0,0,0,0,0,0,0,0,0,0,0,0,0,0,0,0,0,0,0,0,0,0,0,0,0,0,0,0,0,0,0,2,12,535,546,811.0001,558,562,564,823.0001,825.0001,827.0001,830.0001,832.0001,833.0001,836.0001,839.0001,840.0001,838.0001,838.0001,839.0001,842.0001,843.0001,845.0001,846.0001,849.0001,850.0001,851.0001,851.0001,854.0001,854.0001,854.0001,856.0001,856.0001,856.0001,856.0001,854.0001,855.0001,861.0001,867.0001,870.0001,871.0001,871.0001,871.0001,870.0001,870.0001,871.0001,874.0001,875.0001,876.0001,876.0001,876.0001,876.0001,878.0001,881.0001,884.0001,885.0001,886.0001,886.0001,883.0001,884.0001,885.0001,888.0001,889.0001,891.0001,893.0001,892.0001,891.0001,891.0001,891.0001,893.0001,896.0001,898.0001,898.0001,898.0001,898.0001,900.0001,902.0001,903.0001,903.0001,904.0001,905.0001,906.0001,908.0001,910.0001,911.0001,912.0001,912.0001,913.0001,914.0001,916.0001,916.0001,917.0001,918.0001,917.0001,916.0001,915.0001,914.0001,915.0001,917.0001,920.0001,922.0001,924.0001,925.0001,926.0001,928.0001,928.0001,928.0001,930.0001,930.0001,931.0001,933.0001,934.0001,935.0001,935.0001,934.0001,932.0001,930.0001,930.0001,930.0001,932.0001,935.0001,936.0001,937.0001,937.0001,937.0001,937.0001,939.0001,940.0001,942.0001,944.0001,945.0001,944.0001,943.0001,945.0001,947.0001,947.0001,947.0001,947.0001,947.0001,947.0001,947.0001,950.0001,951.0001,951.0001,950.0001,954.0001,956.0001,957.0001,957.0001,959.0001,961.0001,960.0001,959.0001,958.0001,955.0001,956.0001,955.0001,952.0001,947.0001,941.0001,932.0001,919.0001,904.0001,889.0001,875.0001,861.0001,852.0001,849.0001,846.0001,844.0001,842.0001,841.0001,841.0001,840.0001,839.0001,840.0001,841.0001,843.0001,846.0001,849.0001,852.0001,850.0001,851.0001,860.0001,874.0001,892.0001,910.0001,925.0001,941.0001,949.0001,955.0001,958.0001,960.0001,961.0001,963.0001,965.0001,966.0001,967.0001,969.0001,969.0001,970.0001,972.0001,973.0001,974.0001,975.0001,977.0001,977.0001,977.0001,977.0001,976.0001,976.0001,979.0001,980.0001,976.0001,972.0001,972.0001,972.0001,974.0001,976.0001,977.0001,977.0001,977.0001,977.0001,977.0001,976.0001,974.0001,972.0001,970.0001,969.0001,978.0001,987.0001,985.0001,982.0001,984.0001,985.0001,985.0001,987.0001,985.0001,982.0001,982.0001,982.0001,983.0001,984.0001,985.0001,983.0001,980.0001,976.0001,976.0001,977.0001,978.0001,979.0001,980.0001,980.0001,977.0001,974.0001,976.0001,979.0001,980.0001,981.0001,981.0001,981.0001,981.0001,980.0001,981.0001,981.0001,983.0001,983.0001,983.0001,980.0001,979.0001,978.0001,977.0001,976.0001,976.0001,978.0001,982.0001,985.0001,982.0001,980.0001,979.0001,975.0001,975.0001,972.0001,969.0001,966.0001,971.0001,977.0001,977.0001,974.0001,975.0001,976.0001,975.0001,975.0001,976.0001,980.0001,980.0001,978.0001,978.0001,976.0001,976.0001,975.0001,973.0001,973.0001,974.0001,974.0001,972.0001,970.0001,969.0001,968.0001,966.0001,963.0001,960.0001,956.0001,959.0001,961.0001,962.0001,964.0001,968.0001,972.0001,972.0001,971.0001,972.0001,972.0001,968.0001,965.0001,965.0001,965.0001,965.0001,966.0001,964.0001,961.0001,958.0001,955.0001,954.0001,956.0001,960.0001,962.0001,960.0001,957.0001,957.0001,956.0001,955.0001,953.0001,950.0001,948.0001,949.0001,951.0001,952.0001,953.0001,952.0001,950.0001,950.0001,950.0001,950.0001,949.0001,949.0001,949.0001,949.0001,950.0001,949.0001,949.0001,946.0001,943.0001,944.0001,945.0001,946.0001,947.0001,946.0001,945.0001,947.0001,948.0001,943.0001,938.0001,938.0001,941.0001,948.0001,954.0001,949.0001,940.0001,936.0001,930.0001,917.0001,911.0001,670,681,690,675,375,63,12,0,0,0,0,0,0,0,0,0,0,0,0,0,0,0,0,0,0,0,0,0,0,0,0,0,0,0,0,0,0,0,0,0,0,0,0,0,0,0,0,0,0,0,0,0,0,0,0,0,0,0,0,0,0,0,0,0,0,0,0,0,0,0,0,0,0,0,0,0,0,0,0,0,0,0,0,0,0,0,0,0,0,0,0,0,0,0,0,0,0,0,0,0,0,0,0,0,0,0,0,0,0,0,0
0,0,0,0,0,0,0,0,0,0,0,0,0,0,0,0,0,0,0,0,0,0,0,0,0,0,0,0,0,0,0,0,0,0,0,0,0,0,0,0,0,0,0,0,0,0,0,0,0,0,0,0,0,0,0,0,0,0,0,0,0,0,0,0,0,0,0,0,0,0,0,0,0,0,0,0,0,0,0,0,0,0,0,0,0,0,0,0,0,0,0,0,0,0,0,0,0,0,0,0,0,0,0,0,0,0,0,0,0,5,277,549,816.0001,822.0001,826.0001,574,576,834.0001,834.0001,836.0001,838.0001,842.0001,843.0001,846.0001,847.0001,848.0001,846.0001,846.0001,848.0001,849.0001,852.0001,853.0001,855.0001,857.0001,858.0001,860.0001,860.0001,860.0001,861.0001,862.0001,864.0001,866.0001,867.0001,867.0001,867.0001,868.0001,871.0001,875.0001,878.0001,878.0001,879.0001,879.0001,880.0001,880.0001,881.0001,882.0001,883.0001,885.0001,885.0001,885.0001,886.0001,888.0001,888.0001,891.0001,892.0001,893.0001,892.0001,892.0001,893.0001,894.0001,896.0001,898.0001,900.0001,901.0001,901.0001,900.0001,900.0001,900.0001,902.0001,904.0001,905.0001,906.0001,908.0001,908.0001,909.0001,910.0001,911.0001,911.0001,913.0001,914.0001,915.0001,916.0001,918.0001,920.0001,920.0001,920.0001,921.0001,922.0001,923.0001,924.0001,927.0001,928.0001,927.0001,926.0001,925.0001,925.0001,925.0001,926.0001,929.0001,931.0001,933.0001,933.0001,936.0001,936.0001,936.0001,936.0001,938.0001,939.0001,939.0001,940.0001,942.0001,943.0001,944.0001,944.0001,944.0001,943.0001,942.0001,943.0001,945.0001,947.0001,947.0001,948.0001,948.0001,949.0001,949.0001,950.0001,951.0001,953.0001,953.0001,954.0001,953.0001,953.0001,954.0001,956.0001,956.0001,958.0001,958.0001,958.0001,958.0001,958.0001,959.0001,960.0001,962.0001,962.0001,962.0001,964.0001,965.0001,965.0001,967.0001,968.0001,967.0001,967.0001,966.0001,965.0001,964.0001,964.0001,962.0001,958.0001,952.0001,943.0001,930.0001,912.0001,895.0001,878.0001,864.0001,854.0001,851.0001,850.0001,848.0001,845.0001,845.0001,845.0001,844.0001,844.0001,844.0001,846.0001,847.0001,849.0001,853.0001,856.0001,856.0001,858.0001,866.0001,879.0001,897.0001,916.0001,935.0001,952.0001,961.0001,963.0001,966.0001,969.0001,971.0001,972.0001,973.0001,975.0001,976.0001,978.0001,978.0001,979.0001,980.0001,979.0001,982.0001,983.0001,983.0001,984.0001,984.0001,984.0001,984.0001,986.0001,987.0001,987.0001,985.0001,982.0001,981.0001,980.0001,982.0001,984.0001,986.0001,987.0001,988.0001,988.0001,990.0001,993.0001,992.0001,990.0001,986.0001,982.0001,988.0001,992.0001,993.0001,990.0001,992.0001,994.0001,995.0001,996.0001,997.0001,998.0001,1000,1001,1000,999.0001,1001,1001,996.0001,990.0001,989.0001,992.0001,992.0001,992.0001,992.0001,990.0001,987.0001,986.0001,987.0001,990.0001,992.0001,992.0001,993.0001,993.0001,994.0001,997.0001,997.0001,995.0001,995.0001,996.0001,994.0001,991.0001,989.0001,987.0001,987.0001,986.0001,985.0001,987.0001,991.0001,992.0001,992.0001,990.0001,986.0001,985.0001,986.0001,985.0001,980.0001,975.0001,980.0001,987.0001,989.0001,988.0001,986.0001,983.0001,984.0001,987.0001,993.0001,997.0001,996.0001,994.0001,991.0001,986.0001,987.0001,988.0001,987.0001,987.0001,987.0001,986.0001,982.0001,980.0001,979.0001,978.0001,977.0001,974.0001,971.0001,968.0001,970.0001,972.0001,976.0001,979.0001,981.0001,983.0001,983.0001,982.0001,983.0001,984.0001,980.0001,977.0001,974.0001,972.0001,972.0001,974.0001,972.0001,971.0001,969.0001,968.0001,967.0001,967.0001,969.0001,970.0001,968.0001,968.0001,967.0001,967.0001,965.0001,962.0001,961.0001,960.0001,960.0001,961.0001,961.0001,960.0001,959.0001,959.0001,959.0001,958.0001,960.0001,960.0001,960.0001,958.0001,955.0001,954.0001,955.0001,956.0001,955.0001,955.0001,957.0001,958.0001,957.0001,955.0001,955.0001,954.0001,956.0001,958.0001,953.0001,948.0001,948.0001,949.0001,956.0001,962.0001,955.0001,947.0001,942.0001,937.0001,925.0001,898.0001,926.0001,692,694,686,663,372,43,0,0,0,0,0,0,0,0,0,0,0,0,0,0,0,0,0,0,0,0,0,0,0,0,0,0,0,0,0,0,0,0,0,0,0,0,0,0,0,0,0,0,0,0,0,0,0,0,0,0,0,0,0,0,0,0,0,0,0,0,0,0,0,0,0,0,0,0,0,0,0,0,0,0,0,0,0,0,0,0,0,0,0,0,0,0,0,0,0,0,0,0,0,0,0,0,0,0,0,0,0,0,0,0
0,0,0,0,0,0,0,0,0,0,0,0,0,0,0,0,0,0,0,0,0,0,0,0,0,0,0,0,0,0,0,0,0,0,0,0,0,0,0,0,0,0,0,0,0,0,0,0,0,0,0,0,0,0,0,0,0,0,0,0,0,0,0,0,0,0,0,0,0,0,0,0,0,0,0,0,0,0,0,0,0,0,0,0,0,0,0,0,0,0,0,0,0,0,0,0,0,0,0,0,0,0,0,0,0,0,0,0,0,264,544,819.0001,828.0001,831.0001,836.0001,841.0001,842.0001,842.0001,843.0001,845.0001,847.0001,851.0001,853.0001,854.0001,853.0001,851.0001,853.0001,856.0001,857.0001,856.0001,857.0001,857.0001,858.0001,860.0001,862.0001,865.0001,866.0001,867.0001,868.0001,871.0001,873.0001,875.0001,878.0001,879.0001,879.0001,880.0001,882.0001,882.0001,882.0001,882.0001,883.0001,884.0001,886.0001,887.0001,888.0001,889.0001,890.0001,891.0001,892.0001,894.0001,894.0001,894.0001,894.0001,895.0001,897.0001,898.0001,899.0001,899.0001,901.0001,903.0001,903.0001,903.0001,904.0001,905.0001,906.0001,906.0001,906.0001,906.0001,907.0001,909.0001,911.0001,914.0001,916.0001,916.0001,917.0001,918.0001,918.0001,919.0001,921.0001,922.0001,923.0001,924.0001,925.0001,926.0001,926.0001,926.0001,927.0001,928.0001,928.0001,929.0001,932.0001,935.0001,935.0001,934.0001,933.0001,933.0001,934.0001,935.0001,937.0001,939.0001,939.0001,939.0001,940.0001,941.0001,941.0001,941.0001,944.0001,945.0001,945.0001,945.0001,947.0001,950.0001,952.0001,952.0001,954.0001,955.0001,954.0001,953.0001,954.0001,956.0001,955.0001,955.0001,956.0001,959.0001,960.0001,961.0001,961.0001,959.0001,959.0001,959.0001,960.0001,961.0001,961.0001,962.0001,963.0001,964.0001,966.0001,966.0001,965.0001,965.0001,966.0001,967.0001,971.0001,972.0001,971.0001,969.0001,970.0001,971.0001,971.0001,970.0001,971.0001,971.0001,971.0001,971.0001,970.0001,970.0001,969.0001,969.0001,963.0001,954.0001,943.0001,926.0001,903.0001,880.0001,866.0001,856.0001,851.0001,851.0001,848.0001,847.0001,846.0001,847.0001,847.0001,846.0001,847.0001,848.0001,849.0001,852.0001,854.0001,858.0001,861.0001,864.0001,872.0001,883.0001,899.0001,916.0001,939.0001,961.0001,968.0001,971.0001,975.0001,978.0001,981.0001,983.0001,983.0001,983.0001,983.0001,985.0001,984.0001,982.0001,982.0001,983.0001,985.0001,986.0001,987.0001,987.0001,987.0001,988.0001,990.0001,991.0001,992.0001,991.0001,991.0001,991.0001,990.0001,989.0001,990.0001,991.0001,993.0001,995.0001,996.0001,997.0001,1007,1016,1018,1015,1005,1005,998.0001,995.0001,996.0001,998.0001,1000,1001,1002,1003,1011,1019,1023,1023,1022,1017,1022,1023,1021,1016,1013,1009,1010,1016,1006,999.0001,1000,1000,999.0001,1000,1000,1000,1001,1004,1014,1021,1021,1018,1014,1011,1007,1002,1000,998.0001,996.0001,997.0001,996.0001,996.0001,998.0001,998.0001,998.0001,996.0001,992.0001,990.0001,1001,1004,995.0001,987.0001,988.0001,994.0001,998.0001,999.0001,996.0001,987.0001,989.0001,998.0001,1011,1023,1021,1014,1003,992.0001,996.0001,1001,1003,1002,1000,999.0001,994.0001,986.0001,983.0001,983.0001,984.0001,985.0001,982.0001,979.0001,981.0001,986.0001,996.0001,1001,998.0001,993.0001,989.0001,994.0001,988.0001,993.0001,992.0001,990.0001,982.0001,975.0001,974.0001,976.0001,976.0001,976.0001,981.0001,984.0001,982.0001,977.0001,977.0001,976.0001,976.0001,976.0001,977.0001,977.0001,974.0001,971.0001,973.0001,975.0001,972.0001,968.0001,965.0001,962.0001,961.0001,962.0001,963.0001,964.0001,967.0001,969.0001,967.0001,963.0001,957.0001,953.0001,953.0001,956.0001,962.0001,967.0001,971.0001,971.0001,967.0001,961.0001,957.0001,959.0001,962.0001,968.0001,964.0001,961.0001,961.0001,960.0001,963.0001,965.0001,959.0001,952.0001,948.0001,946.0001,944.0001,944.0001,945.0001,942.0001,944.0001,940.0001,941.0001,669,596,0,0,0,0,0,0,0,0,0,0,0,0,0,0,0,0,0,0,0,0,0,0,0,0,0,0,0,0,0,0,0,0,0,0,0,0,0,0,0,0,0,0,0,0,0,0,0,0,0,0,0,0,0,0,0,0,0,0,0,0,0,0,0,0,0,0,0,0,0,0,0,0,0,0,0,0,0,0,0,0,0,0,0,0,0,0,0,0,0,0,0,0,0,0,0,0,0,0,0,0,0,0,0,0
0,0,0,0,0,0,0,0,0,0,0,0,0,0,0,0,0,0,0,0,0,0,0,0,0,0,0,0,0,0,0,0,0,0,0,0,0,0,0,0,0,0,0,0,0,0,0,0,0,0,0,0,0,0,0,0,0,0,0,0,0,0,0,0,0,0,0,0,0,0,0,0,0,0,0,0,0,0,0,0,0,0,0,0,0,0,0,0,0,0,0,0,0,0,0,0,0,0,0,0,0,0,0,0,0,0,0,0,3,275,813.0001,838.0001,842.0001,840.0001,845.0001,851.0001,851.0001,850.0001,851.0001,851.0001,856.0001,861.0001,863.0001,863.0001,862.0001,863.0001,866.0001,869.0001,868.0001,866.0001,865.0001,866.0001,866.0001,868.0001,869.0001,873.0001,874.0001,875.0001,877.0001,880.0001,882.0001,886.0001,888.0001,890.0001,891.0001,892.0001,893.0001,891.0001,891.0001,891.0001,892.0001,892.0001,894.0001,897.0001,897.0001,898.0001,899.0001,902.0001,902.0001,902.0001,903.0001,903.0001,905.0001,903.0001,904.0001,905.0001,906.0001,909.0001,911.0001,912.0001,912.0001,911.0001,912.0001,913.0001,914.0001,914.0001,914.0001,916.0001,916.0001,918.0001,920.0001,922.0001,924.0001,925.0001,926.0001,927.0001,928.0001,928.0001,929.0001,930.0001,932.0001,933.0001,935.0001,935.0001,935.0001,935.0001,936.0001,936.0001,936.0001,937.0001,939.0001,942.0001,943.0001,943.0001,943.0001,944.0001,945.0001,945.0001,948.0001,949.0001,949.0001,948.0001,950.0001,951.0001,953.0001,953.0001,953.0001,956.0001,955.0001,953.0001,955.0001,958.0001,961.0001,964.0001,965.0001,967.0001,968.0001,967.0001,968.0001,969.0001,968.0001,966.0001,968.0001,970.0001,972.0001,975.0001,974.0001,970.0001,967.0001,965.0001,967.0001,970.0001,970.0001,969.0001,971.0001,973.0001,977.0001,979.0001,978.0001,977.0001,978.0001,978.0001,978.0001,981.0001,980.0001,977.0001,978.0001,979.0001,979.0001,979.0001,980.0001,980.0001,981.0001,981.0001,981.0001,980.0001,980.0001,980.0001,975.0001,967.0001,955.0001,939.0001,912.0001,885.0001,868.0001,857.0001,854.0001,852.0001,850.0001,847.0001,847.0001,849.0001,849.0001,850.0001,851.0001,851.0001,853.0001,856.0001,860.0001,863.0001,866.0001,869.0001,877.0001,889.0001,905.0001,923.0001,947.0001,969.0001,976.0001,979.0001,985.0001,989.0001,992.0001,996.0001,996.0001,997.0001,998.0001,997.0001,996.0001,995.0001,995.0001,995.0001,997.0001,999.0001,999.0001,999.0001,1000,1002,1003,1005,1005,1003,999.0001,997.0001,997.0001,999.0001,1001,1003,1004,1005,1007,1006,1004,1000,997.0001,996.0001,998.0001,1001,999.0001,998.0001,1002,1006,1006,1005,1006,1008,1009,1010,1008,1005,1000,995.0001,998.0001,1001,997.0001,991.0001,990.0001,991.0001,991.0001,990.0001,989.0001,990.0001,1001,1010,1009,1006,1006,1008,1009,1010,1004,1005,998.0001,991.0001,994.0001,998.0001,1004,1006,1007,1006,1006,1005,1004,1003,1004,1005,1006,1006,1005,1005,1004,1001,999.0001,992.0001,998.0001,1000,1006,1009,1006,1004,1006,1009,1007,1002,996.0001,993.0001,994.0001,1000,997.0001,995.0001,997.0001,1000,999.0001,998.0001,999.0001,1001,1000,998.0001,998.0001,999.0001,993.0001,988.0001,992.0001,996.0001,1000,989.0001,996.0001,994.0001,994.0001,1005,1006,1007,1006,1004,996.0001,988.0001,985.0001,985.0001,985.0001,987.0001,993.0001,998.0001,997.0001,995.0001,991.0001,988.0001,986.0001,986.0001,989.0001,990.0001,986.0001,985.0001,989.0001,991.0001,990.0001,988.0001,983.0001,978.0001,974.0001,972.0001,972.0001,972.0001,976.0001,979.0001,976.0001,971.0001,965.0001,961.0001,964.0001,968.0001,973.0001,979.0001,983.0001,984.0001,978.0001,970.0001,968.0001,969.0001,973.0001,978.0001,977.0001,974.0001,974.0001,972.0001,972.0001,971.0001,966.0001,961.0001,957.0001,955.0001,960.0001,959.0001,954.0001,940.0001,950.0001,950.0001,961.0001,957.0001,891.0001,541,257,0,0,0,0,0,0,0,0,0,0,0,0,0,0,0,0,0,0,0,0,0,0,0,0,0,0,0,0,0,0,0,0,0,0,0,0,0,0,0,0,0,0,0,0,0,0,0,0,0,0,0,0,0,0,0,0,0,0,0,0,0,0,0,0,0,0,0,0,0,0,0,0,0,0,0,0,0,0,0,0,0,0,0,0,0,0,0,0,0,0,0,0,0,0,0,0,0,0,0,0,0,0
0,0,0,0,0,0,0,0,0,0,0,0,0,0,0,0,0,0,0,0,0,0,0,0,0,0,0,0,0,0,0,0,0,0,0,0,0,0,0,0,0,0,0,0,0,0,0,0,0,0,0,0,0,0,0,0,0,0,0,0,0,0,0,0,0,0,0,0,0,0,0,0,0,0,0,0,0,0,0,0,0,0,0,0,0,0,0,0,0,0,0,0,0,0,0,0,0,0,0,0,0,0,0,0,0,0,0,0,10,286,828.0001,1107,1109,1106,853.0001,855.0001,854.0001,854.0001,856.0001,858.0001,862.0001,868.0001,872.0001,874.0001,876.0001,879.0001,881.0001,882.0001,879.0001,876.0001,875.0001,873.0001,874.0001,876.0001,878.0001,880.0001,883.0001,885.0001,886.0001,888.0001,891.0001,893.0001,894.0001,897.0001,898.0001,899.0001,900.0001,900.0001,900.0001,900.0001,901.0001,901.0001,902.0001,904.0001,904.0001,905.0001,907.0001,910.0001,911.0001,910.0001,909.0001,911.0001,911.0001,912.0001,912.0001,913.0001,913.0001,916.0001,918.0001,919.0001,919.0001,919.0001,919.0001,921.0001,922.0001,921.0001,922.0001,924.0001,925.0001,926.0001,927.0001,928.0001,930.0001,932.0001,933.0001,934.0001,935.0001,934.0001,935.0001,938.0001,940.0001,941.0001,942.0001,943.0001,942.0001,941.0001,941.0001,941.0001,943.0001,944.0001,945.0001,947.0001,949.0001,950.0001,951.0001,952.0001,952.0001,952.0001,954.0001,956.0001,958.0001,960.0001,961.0001,962.0001,962.0001,962.0001,962.0001,964.0001,963.0001,962.0001,963.0001,965.0001,966.0001,970.0001,971.0001,973.0001,975.0001,978.0001,978.0001,978.0001,977.0001,976.0001,975.0001,975.0001,979.0001,983.0001,982.0001,978.0001,973.0001,971.0001,974.0001,976.0001,976.0001,975.0001,978.0001,983.0001,989.0001,993.0001,992.0001,990.0001,986.0001,983.0001,982.0001,982.0001,984.0001,988.0001,989.0001,990.0001,991.0001,993.0001,992.0001,993.0001,994.0001,995.0001,993.0001,993.0001,990.0001,985.0001,983.0001,975.0001,962.0001,940.0001,915.0001,891.0001,874.0001,860.0001,855.0001,855.0001,853.0001,850.0001,850.0001,850.0001,851.0001,851.0001,852.0001,854.0001,855.0001,857.0001,861.0001,866.0001,869.0001,872.0001,882.0001,896.0001,917.0001,937.0001,958.0001,973.0001,979.0001,984.0001,990.0001,995.0001,1001,1006,1009,1013,1015,1016,1017,1016,1015,1014,1015,1017,1019,1020,1022,1023,1023,1023,1023,1023,1015,1007,1009,1015,1020,1023,1022,1020,1021,1012,979.0001,945.0001,936.0001,940.0001,955.0001,972.0001,996.0001,1010,1018,1019,1015,1010,1013,1013,997.0001,978.0001,959.0001,944.0001,942.0001,944.0001,942.0001,940.0001,940.0001,928.0001,939.0001,938.0001,928.0001,939.0001,952.0001,971.0001,997.0001,1017,1018,1013,1015,1016,1020,1015,978.0001,939.0001,930.0001,937.0001,956.0001,974.0001,997.0001,1015,1019,1020,1018,1015,1014,1013,1014,1017,1019,1021,1023,1022,1001,982.0001,991.0001,1011,1014,1010,1008,1008,1020,1023,1023,1023,983.0001,949.0001,933.0001,938.0001,975.0001,1010,996.0001,975.0001,974.0001,978.0001,977.0001,981.0001,1004,1023,1023,1019,1019,1019,1010,1003,1006,1004,991.0001,976.0001,978.0001,987.0001,1014,1023,1023,1019,1017,1015,1009,1003,998.0001,995.0001,996.0001,1000,1002,1004,1007,1008,1003,999.0001,994.0001,992.0001,997.0001,1002,1001,1000,1002,1005,1012,1017,1014,1006,994.0001,983.0001,981.0001,983.0001,983.0001,984.0001,983.0001,982.0001,981.0001,979.0001,981.0001,985.0001,987.0001,988.0001,988.0001,988.0001,986.0001,983.0001,981.0001,982.0001,985.0001,988.0001,985.0001,980.0001,981.0001,979.0001,976.0001,975.0001,974.0001,972.0001,966.0001,961.0001,968.0001,971.0001,949.0001,911.0001,950.0001,966.0001,971.0001,964.0001,933.0001,633,37,0,0,0,0,0,0,0,0,0,0,0,0,0,0,0,0,0,0,0,0,0,0,0,0,0,0,0,0,0,0,0,0,0,0,0,0,0,0,0,0,0,0,0,0,0,0,0,0,0,0,0,0,0,0,0,0,0,0,0,0,0,0,0,0,0,0,0,0,0,0,0,0,0,0,0,0,0,0,0,0,0,0,0,0,0,0,0,0,0,0,0,0,0,0,0,0,0,0,0,0,0,0
0,0,0,0,0,0,0,0,0,0,0,0,0,0,0,0,0,0,0,0,0,0,0,0,0,0,0,0,0,0,0,0,0,0,0,0,0,0,0,0,0,0,0,0,0,0,0,0,0,0,0,0,0,0,0,0,0,0,0,0,0,0,0,0,0,0,0,0,0,0,0,0,0,0,0,0,0,0,0,0,0,0,0,0,0,0,0,0,0,0,0,0,0,0,0,0,0,0,0,0,0,0,0,0,0,0,0,4,22,554,840.0001,1121,1379,1117,861.0001,862.0001,862.0001,861.0001,864.0001,868.0001,874.0001,880.0001,882.0001,883.0001,887.0001,891.0001,894.0001,894.0001,890.0001,887.0001,885.0001,884.0001,885.0001,887.0001,889.0001,891.0001,893.0001,895.0001,896.0001,899.0001,901.0001,902.0001,903.0001,904.0001,906.0001,907.0001,908.0001,907.0001,908.0001,908.0001,910.0001,911.0001,912.0001,913.0001,914.0001,914.0001,915.0001,918.0001,919.0001,918.0001,918.0001,918.0001,920.0001,922.0001,922.0001,922.0001,923.0001,924.0001,927.0001,927.0001,928.0001,927.0001,928.0001,929.0001,930.0001,932.0001,933.0001,934.0001,934.0001,935.0001,935.0001,936.0001,938.0001,941.0001,942.0001,943.0001,944.0001,944.0001,947.0001,948.0001,950.0001,950.0001,952.0001,952.0001,952.0001,950.0001,949.0001,950.0001,953.0001,954.0001,955.0001,956.0001,958.0001,959.0001,961.0001,962.0001,962.0001,962.0001,964.0001,966.0001,969.0001,972.0001,973.0001,972.0001,974.0001,975.0001,975.0001,975.0001,975.0001,974.0001,975.0001,976.0001,977.0001,978.0001,979.0001,982.0001,985.0001,987.0001,988.0001,988.0001,987.0001,986.0001,985.0001,985.0001,992.0001,998.0001,998.0001,997.0001,993.0001,988.0001,991.0001,993.0001,991.0001,989.0001,991.0001,997.0001,1001,1003,1000,996.0001,997.0001,998.0001,998.0001,998.0001,1001,1004,1005,1003,1004,1006,1004,1004,1005,1005,1006,1003,1000,996.0001,994.0001,987.0001,968.0001,945.0001,919.0001,896.0001,877.0001,862.0001,858.0001,858.0001,856.0001,853.0001,852.0001,853.0001,854.0001,855.0001,856.0001,857.0001,858.0001,862.0001,866.0001,870.0001,873.0001,876.0001,889.0001,903.0001,913.0001,925.0001,950.0001,971.0001,978.0001,981.0001,990.0001,997.0001,1000,1000,1001,1005,1001,995.0001,996.0001,996.0001,995.0001,993.0001,994.0001,995.0001,997.0001,1000,1003,1007,1007,1003,1011,1006,979.0001,954.0001,962.0001,978.0001,990.0001,999.0001,1000,995.0001,981.0001,958.0001,911.0001,851.0001,840.0001,846.0001,865.0001,892.0001,938.0001,959.0001,965.0001,965.0001,961.0001,957.0001,960.0001,958.0001,939.0001,912.0001,866.0001,845.0001,845.0001,848.0001,847.0001,844.0001,842.0001,840.0001,843.0001,846.0001,846.0001,849.0001,864.0001,894.0001,942.0001,960.0001,963.0001,959.0001,962.0001,965.0001,965.0001,958.0001,915.0001,845.0001,839.0001,847.0001,864.0001,890.0001,934.0001,947.0001,962.0001,966.0001,967.0001,965.0001,964.0001,959.0001,958.0001,961.0001,971.0001,982.0001,992.0001,987.0001,948.0001,894.0001,937.0001,960.0001,962.0001,956.0001,957.0001,952.0001,984.0001,1003,1004,983.0001,932.0001,853.0001,833.0001,842.0001,884.0001,956.0001,944.0001,908.0001,895.0001,919.0001,887.0001,899.0001,960.0001,1002,1004,995.0001,991.0001,983.0001,969.0001,943.0001,948.0001,951.0001,930.0001,914.0001,894.0001,919.0001,975.0001,1008,1011,1010,1008,1007,1011,1014,1010,1003,1005,1006,1006,1004,1003,1000,1003,1004,1005,1006,1006,1010,1009,1007,1001,998.0001,999.0001,999.0001,1000,1002,1002,998.0001,996.0001,992.0001,992.0001,996.0001,996.0001,996.0001,994.0001,993.0001,995.0001,997.0001,999.0001,1000,999.0001,997.0001,996.0001,995.0001,995.0001,993.0001,996.0001,999.0001,1000,999.0001,996.0001,992.0001,988.0001,986.0001,988.0001,988.0001,982.0001,977.0001,982.0001,983.0001,964.0001,950.0001,964.0001,983.0001,986.0001,980.0001,721,697,103,0,0,1,0,0,0,0,0,0,0,0,0,0,0,0,0,0,0,0,0,0,0,0,0,0,0,0,0,0,0,0,0,0,0,0,0,0,0,0,0,0,0,0,0,0,0,0,0,0,0,0,0,0,0,0,0,0,0,0,0,0,0,0,0,0,0,0,0,0,0,0,0,0,0,0,0,0,0,0,0,0,0,0,0,0,0,0,0,0,0,0,0,0,0,0,0,0,0,0,0,0,0
0,0,0,0,0,0,0,0,0,0,0,0,0,0,0,0,0,0,0,0,0,0,0,0,0,0,0,0,0,0,0,0,0,0,0,0,0,0,0,0,0,0,0,0,0,0,0,0,0,0,0,0,0,0,0,0,0,0,0,0,0,0,0,0,0,0,0,0,0,0,0,0,0,0,0,0,0,0,0,0,0,0,0,0,0,0,0,0,0,0,0,0,0,0,0,0,0,0,0,0,0,0,0,0,0,0,5,20,36,557,847.0001,1130,1389,1128,871.0001,869.0001,870.0001,871.0001,874.0001,880.0001,885.0001,889.0001,889.0001,887.0001,892.0001,897.0001,901.0001,901.0001,899.0001,895.0001,893.0001,893.0001,893.0001,896.0001,897.0001,898.0001,900.0001,902.0001,904.0001,906.0001,907.0001,908.0001,910.0001,910.0001,911.0001,912.0001,913.0001,912.0001,914.0001,916.0001,918.0001,918.0001,920.0001,921.0001,922.0001,922.0001,923.0001,923.0001,924.0001,925.0001,926.0001,926.0001,927.0001,928.0001,929.0001,930.0001,931.0001,932.0001,933.0001,933.0001,934.0001,934.0001,936.0001,938.0001,940.0001,940.0001,941.0001,941.0001,941.0001,939.0001,941.0001,943.0001,945.0001,947.0001,950.0001,952.0001,953.0001,955.0001,955.0001,956.0001,957.0001,958.0001,959.0001,960.0001,960.0001,959.0001,959.0001,960.0001,961.0001,963.0001,963.0001,964.0001,967.0001,969.0001,969.0001,969.0001,968.0001,970.0001,972.0001,974.0001,977.0001,978.0001,979.0001,980.0001,982.0001,984.0001,984.0001,985.0001,984.0001,983.0001,984.0001,985.0001,986.0001,988.0001,989.0001,991.0001,991.0001,993.0001,996.0001,999.0001,997.0001,997.0001,998.0001,1000,1007,1013,1019,1022,1018,1013,1014,1016,1015,1012,1011,1015,1016,1013,1009,1004,1015,1020,1023,1023,1023,1023,1023,1023,1023,1020,1016,1014,1016,1018,1015,1014,1016,1015,1006,990.0001,975.0001,951.0001,923.0001,893.0001,877.0001,866.0001,861.0001,861.0001,858.0001,855.0001,855.0001,855.0001,856.0001,858.0001,858.0001,859.0001,861.0001,865.0001,869.0001,873.0001,878.0001,884.0001,897.0001,908.0001,894.0001,888.0001,928.0001,970.0001,975.0001,972.0001,985.0001,993.0001,991.0001,984.0001,982.0001,978.0001,957.0001,945.0001,944.0001,945.0001,943.0001,941.0001,941.0001,941.0001,943.0001,944.0001,949.0001,950.0001,945.0001,946.0001,950.0001,948.0001,902.0001,830.0001,840.0001,875.0001,922.0001,940.0001,945.0001,936.0001,901.0001,835.0001,808.0001,782.0001,778.0001,788.0001,800.0001,813.0001,823.0001,832.0001,833.0001,831.0001,831.0001,832.0001,833.0001,832.0001,822.0001,807.0001,797.0001,787.0001,783.0001,783.0001,785.0001,789.0001,790.0001,789.0001,788.0001,787.0001,789.0001,795.0001,805.0001,817.0001,827.0001,833.0001,832.0001,829.0001,834.0001,838.0001,838.0001,829.0001,810.0001,789.0001,784.0001,785.0001,791.0001,802.0001,814.0001,822.0001,836.0001,837.0001,839.0001,839.0001,837.0001,836.0001,829.0001,829.0001,851.0001,873.0001,913.0001,870.0001,869.0001,809.0001,819.0001,833.0001,833.0001,830.0001,826.0001,828.0001,877.0001,938.0001,932.0001,898.0001,830.0001,781.0001,771.0001,784.0001,808.0001,832.0001,825.0001,813.0001,812.0001,813.0001,810.0001,812.0001,864.0001,938.0001,952.0001,942.0001,920.0001,883.0001,869.0001,825.0001,822.0001,829.0001,815.0001,809.0001,823.0001,853.0001,912.0001,943.0001,961.0001,982.0001,980.0001,980.0001,1002,1023,1022,1015,1013,1011,1013,1005,989.0001,975.0001,990.0001,1017,1023,1023,1020,1016,1012,1014,993.0001,979.0001,953.0001,937.0001,950.0001,981.0001,1002,1020,1010,996.0001,999.0001,1003,1014,1016,1010,1003,1010,1016,1007,1006,1010,1016,1009,1009,1013,1007,1009,1015,1021,1023,1015,1005,1002,1003,1005,1006,1003,1001,994.0001,992.0001,982.0001,975.0001,987.0001,998.0001,1000,999.0001,753,741,142,17,0,2,0,0,0,0,0,0,0,0,0,0,0,0,0,0,0,0,0,0,0,0,0,0,0,0,0,0,0,0,0,0,0,0,0,0,0,0,0,0,0,0,0,0,0,0,0,0,0,0,0,0,0,0,0,0,0,0,0,0,0,0,0,0,0,0,0,0,0,0,0,0,0,0,0,0,0,0,0,0,0,0,0,0,0,0,0,0,0,0,0,0,0,0,0,0,0,0,0,0,0
0,0,0,0,0,0,0,0,0,0,0,0,0,0,0,0,0,0,0,0,0,0,0,0,0,0,0,0,0,0,0,0,0,0,0,0,0,0,0,0,0,0,0,0,0,0,0,0,0,0,0,0,0,0,0,0,0,0,0,0,0,0,0,0,0,0,0,0,0,0,0,0,0,0,0,0,0,0,0,0,0,0,0,0,0,0,0,0,0,0,0,0,0,0,0,0,0,0,0,0,0,0,0,0,0,3,23,43,310,575,844.0001,1136,1396,1137,881.0001,879.0001,880.0001,883.0001,886.0001,890.0001,896.0001,899.0001,898.0001,898.0001,903.0001,909.0001,909.0001,907.0001,906.0001,904.0001,903.0001,902.0001,903.0001,904.0001,905.0001,906.0001,908.0001,910.0001,912.0001,915.0001,918.0001,919.0001,918.0001,918.0001,919.0001,920.0001,920.0001,920.0001,922.0001,925.0001,926.0001,927.0001,930.0001,931.0001,931.0001,932.0001,932.0001,932.0001,933.0001,934.0001,936.0001,935.0001,935.0001,937.0001,938.0001,938.0001,939.0001,941.0001,942.0001,943.0001,944.0001,943.0001,946.0001,948.0001,950.0001,950.0001,949.0001,949.0001,950.0001,949.0001,949.0001,950.0001,953.0001,955.0001,959.0001,962.0001,963.0001,963.0001,963.0001,965.0001,966.0001,965.0001,966.0001,969.0001,969.0001,969.0001,969.0001,970.0001,971.0001,973.0001,974.0001,976.0001,979.0001,981.0001,982.0001,982.0001,980.0001,981.0001,983.0001,986.0001,986.0001,987.0001,991.0001,995.0001,1000,1003,1002,999.0001,999.0001,998.0001,1000,1001,1001,1002,1004,1005,1005,1006,1009,1011,1009,1005,1007,1008,1005,1002,1000,1001,998.0001,996.0001,997.0001,995.0001,993.0001,992.0001,987.0001,985.0001,973.0001,961.0001,950.0001,955.0001,960.0001,1001,1006,1006,999.0001,990.0001,986.0001,983.0001,977.0001,980.0001,978.0001,977.0001,970.0001,962.0001,958.0001,961.0001,970.0001,987.0001,994.0001,993.0001,974.0001,955.0001,926.0001,897.0001,881.0001,870.0001,866.0001,865.0001,863.0001,860.0001,860.0001,860.0001,861.0001,861.0001,862.0001,863.0001,865.0001,868.0001,871.0001,874.0001,881.0001,887.0001,901.0001,908.0001,890.0001,860.0001,902.0001,952.0001,965.0001,963.0001,986.0001,999.0001,971.0001,939.0001,906.0001,914.0001,867.0001,852.0001,851.0001,853.0001,850.0001,847.0001,847.0001,848.0001,850.0001,852.0001,855.0001,860.0001,852.0001,849.0001,858.0001,856.0001,813.0001,772.0001,785.0001,809.0001,836.0001,850.0001,856.0001,850.0001,816.0001,777.0001,768.0001,768.0001,768.0001,769.0001,773.0001,778.0001,780.0001,778.0001,774.0001,772.0001,775.0001,778.0001,776.0001,772.0001,772.0001,771.0001,769.0001,768.0001,768.0001,768.0001,768.0001,769.0001,770.0001,771.0001,770.0001,770.0001,771.0001,774.0001,778.0001,782.0001,780.0001,777.0001,777.0001,778.0001,781.0001,782.0001,781.0001,775.0001,771.0001,768.0001,768.0001,768.0001,768.0001,768.0001,768.0001,770.0001,774.0001,783.0001,788.0001,787.0001,782.0001,780.0001,772.0001,771.0001,792.0001,812.0001,815.0001,810.0001,789.0001,770.0001,769.0001,773.0001,775.0001,775.0001,770.0001,777.0001,814.0001,847.0001,839.0001,813.0001,782.0001,768.0001,768.0001,768.0001,768.0001,774.0001,776.0001,775.0001,772.0001,773.0001,768.0001,769.0001,810.0001,851.0001,857.0001,850.0001,833.0001,804.0001,785.0001,771.0001,769.0001,773.0001,770.0001,768.0001,775.0001,795.0001,819.0001,846.0001,870.0001,915.0001,892.0001,914.0001,914.0001,964.0001,965.0001,960.0001,958.0001,954.0001,957.0001,954.0001,934.0001,891.0001,932.0001,958.0001,977.0001,983.0001,973.0001,959.0001,959.0001,958.0001,943.0001,922.0001,867.0001,847.0001,857.0001,889.0001,957.0001,997.0001,1004,1002,1004,1000,989.0001,980.0001,964.0001,954.0001,959.0001,973.0001,995.0001,1013,1009,1005,993.0001,971.0001,961.0001,959.0001,955.0001,962.0001,982.0001,999.0001,1002,999.0001,1005,1009,1005,999.0001,996.0001,996.0001,995.0001,1000,1000,1001,1009,1014,1015,1012,754,736,426,107,31,3,0,0,0,0,0,0,0,0,0,0,0,0,0,0,0,0,0,0,0,0,0,0,0,0,0,0,0,0,0,0,0,0,0,0,0,0,0,0,0,0,0,0,0,0,0,0,0,0,0,0,0,0,0,0,0,0,0,0,0,0,0,0,0,0,0,0,0,0,0,0,0,0,0,0,0,0,0,0,0,0,0,0,0,0,0,0,0,0,0,0,0,0,0,0,0,0,0,0,0
0,0,0,0,0,0,0,0,0,0,0,0,0,0,0,0,0,0,0,0,0,0,0,0,0,0,0,0,0,0,0,0,0,0,0,0,0,0,0,0,0,0,0,0,0,0,0,0,0,0,0,0,0,0,0,0,0,0,0,0,0,0,0,0,0,0,0,0,0,0,0,0,0,0,0,0,0,0,0,0,0,0,0,0,0,0,0,0,0,0,0,0,0,0,0,0,0,0,0,0,0,0,0,0,4,14,43,65,324,567,852.0001,1136,1397,1147,891.0001,889.0001,890.0001,892.0001,895.0001,898.0001,902.0001,906.0001,907.0001,910.0001,916.0001,919.0001,914.0001,907.0001,907.0001,909.0001,909.0001,909.0001,910.0001,912.0001,913.0001,914.0001,915.0001,916.0001,918.0001,921.0001,923.0001,926.0001,925.0001,924.0001,924.0001,926.0001,927.0001,928.0001,930.0001,932.0001,932.0001,932.0001,936.0001,938.0001,938.0001,939.0001,940.0001,941.0001,942.0001,943.0001,943.0001,942.0001,943.0001,943.0001,944.0001,945.0001,946.0001,947.0001,950.0001,951.0001,952.0001,952.0001,954.0001,955.0001,956.0001,958.0001,957.0001,957.0001,958.0001,959.0001,959.0001,959.0001,960.0001,961.0001,966.0001,969.0001,970.0001,970.0001,970.0001,970.0001,971.0001,973.0001,974.0001,975.0001,975.0001,976.0001,976.0001,977.0001,979.0001,981.0001,982.0001,985.0001,988.0001,991.0001,993.0001,994.0001,993.0001,992.0001,994.0001,995.0001,994.0001,996.0001,1006,1017,1023,1023,1023,1020,1019,1018,1022,1023,1022,1020,1021,1023,1023,1023,1023,1023,1023,1018,1014,1009,993.0001,974.0001,956.0001,943.0001,945.0001,947.0001,939.0001,938.0001,939.0001,941.0001,930.0001,918.0001,874.0001,825.0001,816.0001,823.0001,870.0001,943.0001,956.0001,949.0001,929.0001,911.0001,877.0001,878.0001,900.0001,873.0001,901.0001,899.0001,850.0001,827.0001,823.0001,836.0001,870.0001,940.0001,966.0001,982.0001,976.0001,959.0001,928.0001,903.0001,885.0001,875.0001,869.0001,868.0001,866.0001,863.0001,863.0001,863.0001,863.0001,864.0001,865.0001,867.0001,869.0001,871.0001,873.0001,876.0001,880.0001,886.0001,897.0001,905.0001,899.0001,896.0001,913.0001,938.0001,948.0001,960.0001,998.0001,1018,959.0001,886.0001,833.0001,809.0001,801.0001,791.0001,790.0001,791.0001,788.0001,785.0001,788.0001,790.0001,790.0001,791.0001,793.0001,798.0001,798.0001,792.0001,793.0001,793.0001,785.0001,777.0001,776.0001,784.0001,784.0001,792.0001,797.0001,798.0001,791.0001,784.0001,782.0001,784.0001,789.0001,795.0001,796.0001,797.0001,797.0001,793.0001,789.0001,784.0001,791.0001,795.0001,787.0001,780.0001,781.0001,785.0001,789.0001,792.0001,791.0001,789.0001,789.0001,791.0001,793.0001,797.0001,799.0001,802.0001,802.0001,801.0001,799.0001,798.0001,795.0001,795.0001,795.0001,796.0001,793.0001,792.0001,793.0001,796.0001,790.0001,785.0001,785.0001,787.0001,789.0001,792.0001,788.0001,790.0001,787.0001,797.0001,798.0001,796.0001,793.0001,789.0001,788.0001,785.0001,785.0001,785.0001,783.0001,785.0001,783.0001,781.0001,782.0001,783.0001,784.0001,787.0001,790.0001,792.0001,792.0001,795.0001,797.0001,796.0001,784.0001,775.0001,784.0001,787.0001,784.0001,783.0001,789.0001,793.0001,793.0001,790.0001,787.0001,785.0001,792.0001,796.0001,796.0001,796.0001,790.0001,783.0001,782.0001,784.0001,785.0001,785.0001,787.0001,785.0001,780.0001,775.0001,774.0001,782.0001,799.0001,809.0001,812.0001,809.0001,823.0001,833.0001,833.0001,831.0001,832.0001,833.0001,834.0001,831.0001,820.0001,811.0001,825.0001,830.0001,859.0001,876.0001,882.0001,830.0001,829.0001,831.0001,825.0001,812.0001,792.0001,784.0001,778.0001,812.0001,862.0001,942.0001,988.0001,1016,1005,974.0001,943.0001,903.0001,851.0001,832.0001,839.0001,875.0001,963.0001,1023,1014,986.0001,943.0001,901.0001,848.0001,831.0001,826.0001,829.0001,881.0001,938.0001,963.0001,982.0001,1003,1017,1002,982.0001,972.0001,970.0001,988.0001,1008,1016,1021,1023,1023,1023,1014,718,684,435,177,75,2,0,0,0,0,0,0,0,0,0,0,0,0,0,0,0,0,0,0,0,0,0,0,0,0,0,0,0,0,0,0,0,0,0,0,0,0,0,0,0,0,0,0,0,0,0,0,0,0,0,0,0,0,0,0,0,0,0,0,0,0,0,0,0,0,0,0,0,0,0,0,0,0,0,0,0,0,0,0,0,0,0,0,0,0,0,0,0,0,0,0,0,0,0,0,0,0,0,0,0
0,0,0,0,0,0,0,0,0,0,0,0,0,0,0,0,0,0,0,0,0,0,0,0,0,0,0,0,0,0,0,0,0,0,0,0,0,0,0,0,0,0,0,0,0,0,0,0,0,0,0,0,0,0,0,0,0,0,0,0,0,0,0,0,0,0,0,0,0,0,0,0,0,0,0,0,0,0,0,0,0,0,0,0,0,0,0,0,0,0,0,0,0,0,0,0,0,0,0,0,0,0,0,0,8,39,82,363,613,598,853.0001,1144,1145,1151,898.0001,896.0001,897.0001,898.0001,900.0001,904.0001,906.0001,910.0001,914.0001,919.0001,925.0001,928.0001,922.0001,916.0001,917.0001,920.0001,920.0001,919.0001,920.0001,921.0001,921.0001,922.0001,923.0001,924.0001,926.0001,928.0001,932.0001,933.0001,934.0001,935.0001,935.0001,936.0001,937.0001,937.0001,938.0001,940.0001,940.0001,941.0001,944.0001,947.0001,947.0001,948.0001,949.0001,951.0001,951.0001,952.0001,953.0001,953.0001,953.0001,952.0001,953.0001,956.0001,957.0001,959.0001,960.0001,958.0001,960.0001,962.0001,965.0001,967.0001,966.0001,966.0001,965.0001,965.0001,967.0001,969.0001,970.0001,971.0001,970.0001,971.0001,974.0001,978.0001,977.0001,977.0001,979.0001,983.0001,984.0001,985.0001,987.0001,990.0001,990.0001,991.0001,991.0001,994.0001,996.0001,998.0001,998.0001,999.0001,1002,1004,1007,1008,1007,1005,1008,1010,1007,1000,997.0001,995.0001,1000,1003,999.0001,996.0001,997.0001,996.0001,989.0001,984.0001,988.0001,996.0001,999.0001,1001,995.0001,987.0001,986.0001,983.0001,973.0001,962.0001,960.0001,954.0001,936.0001,908.0001,863.0001,848.0001,846.0001,852.0001,847.0001,845.0001,848.0001,845.0001,843.0001,828.0001,795.0001,769.0001,768.0001,769.0001,812.0001,853.0001,863.0001,855.0001,837.0001,818.0001,813.0001,815.0001,811.0001,814.0001,811.0001,808.0001,789.0001,768.0001,768.0001,776.0001,816.0001,851.0001,885.0001,916.0001,964.0001,965.0001,938.0001,907.0001,889.0001,879.0001,874.0001,871.0001,868.0001,865.0001,865.0001,866.0001,864.0001,865.0001,867.0001,869.0001,871.0001,873.0001,875.0001,877.0001,880.0001,886.0001,892.0001,901.0001,907.0001,910.0001,916.0001,918.0001,918.0001,925.0001,967.0001,989.0001,915.0001,809.0001,782.0001,770.0001,770.0001,769.0001,769.0001,770.0001,770.0001,768.0001,768.0001,770.0001,770.0001,770.0001,771.0001,772.0001,771.0001,773.0001,771.0001,771.0001,780.0001,795.0001,781.0001,776.0001,772.0001,772.0001,774.0001,778.0001,788.0001,793.0001,798.0001,803.0001,807.0001,810.0001,809.0001,805.0001,805.0001,803.0001,799.0001,796.0001,800.0001,801.0001,795.0001,789.0001,791.0001,797.0001,801.0001,805.0001,807.0001,805.0001,805.0001,805.0001,809.0001,813.0001,816.0001,818.0001,817.0001,814.0001,811.0001,808.0001,805.0001,805.0001,808.0001,809.0001,805.0001,800.0001,803.0001,807.0001,805.0001,802.0001,802.0001,803.0001,803.0001,805.0001,800.0001,797.0001,801.0001,807.0001,808.0001,805.0001,801.0001,798.0001,797.0001,796.0001,788.0001,776.0001,778.0001,776.0001,785.0001,793.0001,793.0001,793.0001,795.0001,796.0001,800.0001,799.0001,787.0001,775.0001,776.0001,784.0001,791.0001,798.0001,803.0001,804.0001,799.0001,792.0001,798.0001,804.0001,805.0001,802.0001,801.0001,797.0001,785.0001,776.0001,774.0001,774.0001,773.0001,774.0001,782.0001,790.0001,796.0001,798.0001,799.0001,798.0001,788.0001,775.0001,769.0001,768.0001,768.0001,772.0001,771.0001,770.0001,771.0001,774.0001,771.0001,771.0001,773.0001,776.0001,776.0001,774.0001,772.0001,775.0001,770.0001,774.0001,797.0001,814.0001,793.0001,769.0001,771.0001,774.0001,773.0001,772.0001,768.0001,768.0001,768.0001,768.0001,805.0001,855.0001,905.0001,957.0001,951.0001,912.0001,851.0001,810.0001,782.0001,774.0001,780.0001,815.0001,876.0001,961.0001,957.0001,918.0001,853.0001,813.0001,789.0001,774.0001,770.0001,777.0001,809.0001,848.0001,877.0001,914.0001,955.0001,961.0001,943.0001,919.0001,884.0001,881.0001,928.0001,960.0001,980.0001,996.0001,1007,1005,1002,984.0001,924.0001,592,636,444,116,2,0,0,0,0,0,0,0,0,0,0,0,0,0,0,0,0,0,0,0,0,0,0,0,0,0,0,0,0,0,0,0,0,0,0,0,0,0,0,0,0,0,0,0,0,0,0,0,0,0,0,0,0,0,0,0,0,0,0,0,0,0,0,0,0,0,0,0,0,0,0,0,0,0,0,0,0,0,0,0,0,0,0,0,0,0,0,0,0,0,0,0,0,0,0,0,0,0,0,0
0,0,0,0,0,0,0,0,0,0,0,0,0,0,0,0,0,0,0,0,0,0,0,0,0,0,0,0,0,0,0,0,0,0,0,0,0,0,0,0,0,0,0,0,0,0,0,0,0,0,0,0,0,0,0,0,0,0,0,0,0,0,0,0,0,0,0,0,0,0,0,0,0,0,0,0,0,0,0,0,0,0,0,0,0,0,0,0,0,0,0,0,0,0,0,0,0,0,0,0,0,0,0,0,19,318,363,640,645,894.0001,900.0001,900.0001,893.0001,894.0001,897.0001,896.0001,898.0001,900.0001,902.0001,905.0001,906.0001,907.0001,913.0001,919.0001,926.0001,930.0001,930.0001,927.0001,929.0001,931.0001,929.0001,926.0001,927.0001,927.0001,928.0001,927.0001,930.0001,930.0001,934.0001,937.0001,938.0001,939.0001,943.0001,945.0001,946.0001,946.0001,946.0001,945.0001,948.0001,950.0001,950.0001,950.0001,951.0001,953.0001,952.0001,953.0001,954.0001,955.0001,956.0001,954.0001,959.0001,964.0001,963.0001,960.0001,962.0001,965.0001,968.0001,970.0001,966.0001,962.0001,965.0001,971.0001,978.0001,982.0001,978.0001,973.0001,972.0001,972.0001,974.0001,975.0001,977.0001,978.0001,980.0001,980.0001,982.0001,983.0001,981.0001,980.0001,987.0001,993.0001,996.0001,998.0001,1001,1005,1006,1005,1008,1012,1015,1023,1021,1018,1021,1023,1023,1023,1023,1021,1023,1023,1023,1009,971.0001,944.0001,940.0001,944.0001,943.0001,941.0001,944.0001,941.0001,914.0001,887.0001,892.0001,935.0001,949.0001,941.0001,919.0001,905.0001,874.0001,872.0001,880.0001,831.0001,832.0001,834.0001,821.0001,807.0001,797.0001,791.0001,784.0001,785.0001,788.0001,788.0001,791.0001,792.0001,789.0001,785.0001,778.0001,775.0001,774.0001,775.0001,788.0001,798.0001,797.0001,793.0001,789.0001,785.0001,785.0001,785.0001,784.0001,783.0001,784.0001,784.0001,778.0001,774.0001,778.0001,785.0001,792.0001,793.0001,826.0001,866.0001,940.0001,971.0001,945.0001,909.0001,893.0001,881.0001,875.0001,872.0001,869.0001,867.0001,865.0001,864.0001,863.0001,863.0001,865.0001,867.0001,869.0001,871.0001,875.0001,877.0001,880.0001,883.0001,890.0001,898.0001,911.0001,918.0001,907.0001,900.0001,870.0001,853.0001,887.0001,937.0001,883.0001,790.0001,782.0001,784.0001,785.0001,792.0001,797.0001,800.0001,799.0001,797.0001,798.0001,799.0001,799.0001,799.0001,798.0001,797.0001,797.0001,800.0001,799.0001,798.0001,801.0001,802.0001,800.0001,800.0001,801.0001,802.0001,804.0001,805.0001,808.0001,809.0001,810.0001,810.0001,811.0001,812.0001,810.0001,810.0001,810.0001,809.0001,807.0001,804.0001,804.0001,804.0001,803.0001,803.0001,803.0001,803.0001,803.0001,804.0001,807.0001,808.0001,808.0001,809.0001,813.0001,817.0001,817.0001,818.0001,817.0001,816.0001,816.0001,815.0001,814.0001,815.0001,818.0001,819.0001,818.0001,816.0001,815.0001,815.0001,816.0001,814.0001,811.0001,808.0001,808.0001,809.0001,807.0001,805.0001,811.0001,817.0001,818.0001,817.0001,814.0001,811.0001,808.0001,804.0001,800.0001,798.0001,796.0001,796.0001,802.0001,804.0001,804.0001,803.0001,805.0001,808.0001,810.0001,809.0001,804.0001,800.0001,798.0001,798.0001,804.0001,810.0001,811.0001,810.0001,807.0001,803.0001,805.0001,809.0001,811.0001,811.0001,811.0001,809.0001,805.0001,800.0001,798.0001,796.0001,793.0001,790.0001,795.0001,798.0001,800.0001,802.0001,805.0001,805.0001,803.0001,799.0001,795.0001,791.0001,791.0001,788.0001,789.0001,788.0001,788.0001,789.0001,785.0001,784.0001,783.0001,783.0001,785.0001,785.0001,783.0001,781.0001,782.0001,782.0001,789.0001,793.0001,787.0001,781.0001,788.0001,792.0001,792.0001,790.0001,788.0001,783.0001,780.0001,778.0001,785.0001,797.0001,818.0001,832.0001,821.0001,804.0001,793.0001,784.0001,772.0001,768.0001,774.0001,791.0001,811.0001,825.0001,823.0001,815.0001,803.0001,791.0001,785.0001,784.0001,783.0001,782.0001,784.0001,791.0001,823.0001,851.0001,873.0001,832.0001,818.0001,808.0001,802.0001,805.0001,817.0001,836.0001,873.0001,939.0001,940.0001,943.0001,945.0001,936.0001,845.0001,778.0001,825.0001,639,567,4,0,0,0,0,0,0,0,0,0,0,0,0,0,0,0,0,0,0,0,0,0,0,0,0,0,0,0,0,0,0,0,0,0,0,0,0,0,0,0,0,0,0,0,0,0,0,0,0,0,0,0,0,0,0,0,0,0,0,0,0,0,0,0,0,0,0,0,0,0,0,0,0,0,0,0,0,0,0,0,0,0,0,0,0,0,0,0,0,0,0,0,0,0,0,0,0,0,0,0
0,0,0,0,0,0,0,0,0,0,0,0,0,0,0,0,0,0,0,0,0,0,0,0,0,0,0,0,0,0,0,0,0,0,0,0,0,0,0,0,0,0,0,0,0,0,0,0,0,0,0,0,0,0,0,0,0,0,0,0,0,0,0,0,0,0,0,0,0,0,0,0,0,0,0,0,0,0,0,0,0,0,0,0,0,0,0,0,0,0,0,0,0,0,0,0,0,0,0,0,0,0,0,0,33,353,387,660,664,921.0001,907.0001,903.0001,900.0001,901.0001,903.0001,906.0001,907.0001,908.0001,910.0001,912.0001,912.0001,913.0001,917.0001,923.0001,930.0001,935.0001,938.0001,938.0001,940.0001,942.0001,939.0001,938.0001,938.0001,938.0001,938.0001,938.0001,939.0001,942.0001,944.0001,948.0001,948.0001,948.0001,953.0001,957.0001,958.0001,958.0001,956.0001,955.0001,957.0001,960.0001,959.0001,958.0001,960.0001,961.0001,961.0001,961.0001,961.0001,961.0001,963.0001,965.0001,969.0001,975.0001,974.0001,972.0001,974.0001,978.0001,984.0001,989.0001,985.0001,980.0001,981.0001,985.0001,992.0001,995.0001,988.0001,981.0001,980.0001,982.0001,988.0001,992.0001,996.0001,998.0001,997.0001,995.0001,997.0001,999.0001,997.0001,995.0001,1001,1007,1005,1004,1007,1012,1014,1012,1001,991.0001,996.0001,1003,997.0001,996.0001,998.0001,1002,1002,1000,991.0001,981.0001,998.0001,1005,988.0001,948.0001,910.0001,851.0001,843.0001,847.0001,850.0001,855.0001,854.0001,852.0001,826.0001,804.0001,826.0001,854.0001,855.0001,851.0001,833.0001,813.0001,811.0001,814.0001,796.0001,774.0001,776.0001,778.0001,774.0001,771.0001,769.0001,768.0001,768.0001,768.0001,768.0001,768.0001,768.0001,770.0001,770.0001,771.0001,776.0001,783.0001,784.0001,783.0001,777.0001,772.0001,770.0001,770.0001,771.0001,775.0001,776.0001,778.0001,776.0001,775.0001,775.0001,776.0001,778.0001,783.0001,789.0001,792.0001,778.0001,772.0001,784.0001,811.0001,896.0001,979.0001,956.0001,916.0001,897.0001,887.0001,878.0001,874.0001,870.0001,869.0001,866.0001,863.0001,862.0001,864.0001,866.0001,868.0001,870.0001,873.0001,877.0001,879.0001,882.0001,885.0001,893.0001,901.0001,920.0001,931.0001,917.0001,869.0001,857.0001,810.0001,854.0001,850.0001,822.0001,795.0001,793.0001,797.0001,804.0001,810.0001,816.0001,819.0001,819.0001,818.0001,818.0001,818.0001,818.0001,817.0001,816.0001,816.0001,815.0001,816.0001,817.0001,817.0001,817.0001,816.0001,816.0001,816.0001,820.0001,822.0001,823.0001,823.0001,823.0001,822.0001,821.0001,820.0001,820.0001,819.0001,818.0001,818.0001,818.0001,818.0001,817.0001,816.0001,815.0001,814.0001,815.0001,817.0001,816.0001,814.0001,812.0001,811.0001,812.0001,814.0001,815.0001,817.0001,820.0001,826.0001,825.0001,823.0001,823.0001,822.0001,823.0001,823.0001,825.0001,826.0001,827.0001,831.0001,830.0001,829.0001,828.0001,827.0001,828.0001,828.0001,822.0001,817.0001,817.0001,818.0001,817.0001,817.0001,821.0001,827.0001,829.0001,828.0001,826.0001,822.0001,819.0001,816.0001,815.0001,814.0001,814.0001,812.0001,815.0001,817.0001,817.0001,816.0001,819.0001,820.0001,820.0001,821.0001,819.0001,817.0001,815.0001,814.0001,818.0001,820.0001,818.0001,817.0001,817.0001,815.0001,815.0001,816.0001,818.0001,821.0001,822.0001,821.0001,820.0001,817.0001,816.0001,814.0001,808.0001,804.0001,807.0001,810.0001,811.0001,810.0001,813.0001,814.0001,816.0001,817.0001,816.0001,814.0001,811.0001,805.0001,805.0001,804.0001,802.0001,801.0001,798.0001,796.0001,793.0001,791.0001,792.0001,793.0001,795.0001,793.0001,793.0001,792.0001,788.0001,787.0001,787.0001,791.0001,798.0001,802.0001,803.0001,801.0001,800.0001,799.0001,793.0001,788.0001,777.0001,770.0001,773.0001,777.0001,770.0001,768.0001,770.0001,773.0001,772.0001,771.0001,774.0001,778.0001,774.0001,770.0001,770.0001,771.0001,774.0001,777.0001,785.0001,791.0001,792.0001,788.0001,774.0001,768.0001,785.0001,807.0001,792.0001,777.0001,768.0001,768.0001,768.0001,769.0001,770.0001,778.0001,813.0001,842.0001,850.0001,846.0001,857.0001,852.0001,822.0001,768.0001,778.0001,815.0001,797.0001,514,0,0,0,0,0,0,0,0,0,0,0,0,0,0,0,0,0,0,0,0,0,0,0,0,0,0,0,0,0,0,0,0,0,0,0,0,0,0,0,0,0,0,0,0,0,0,0,0,0,0,0,0,0,0,0,0,0,0,0,0,0,0,0,0,0,0,0,0,0,0,0,0,0,0,0,0,0,0,0,0,0,0,0,0,0,0,0,0,0,0,0,0,0,0,0,0,0,0,0
0,0,0,0,0,0,0,0,0,0,0,0,0,0,0,0,0,0,0,0,0,0,0,0,0,0,0,0,0,0,0,0,0,0,0,0,0,0,0,0,0,0,0,0,0,0,0,0,0,0,0,0,0,0,0,0,0,0,0,0,0,0,0,0,0,0,0,0,0,0,0,0,0,0,0,0,0,0,0,0,0,0,0,0,0,0,0,0,0,0,0,0,0,0,0,0,0,0,0,0,0,0,0,4,55,374,399,666,660,899.0001,897.0001,893.0001,902.0001,907.0001,913.0001,919.0001,920.0001,919.0001,921.0001,922.0001,923.0001,924.0001,925.0001,929.0001,935.0001,941.0001,943.0001,944.0001,945.0001,947.0001,947.0001,945.0001,946.0001,949.0001,948.0001,947.0001,949.0001,951.0001,954.0001,958.0001,957.0001,957.0001,960.0001,964.0001,966.0001,967.0001,966.0001,965.0001,966.0001,967.0001,967.0001,965.0001,969.0001,970.0001,970.0001,968.0001,968.0001,968.0001,969.0001,973.0001,978.0001,983.0001,982.0001,981.0001,984.0001,987.0001,998.0001,1009,1011,1010,1006,1002,1000,999.0001,992.0001,986.0001,990.0001,997.0001,1008,1017,1022,1023,1019,1018,1018,1021,1021,1020,1021,1022,1012,1005,1009,1015,1018,1012,977.0001,940.0001,940.0001,940.0001,943.0001,945.0001,945.0001,950.0001,948.0001,941.0001,918.0001,875.0001,935.0001,947.0001,907.0001,830.0001,809.0001,790.0001,785.0001,788.0001,795.0001,797.0001,795.0001,791.0001,787.0001,785.0001,791.0001,796.0001,795.0001,796.0001,788.0001,781.0001,787.0001,788.0001,782.0001,789.0001,789.0001,790.0001,789.0001,785.0001,787.0001,788.0001,788.0001,787.0001,787.0001,788.0001,789.0001,790.0001,791.0001,793.0001,791.0001,790.0001,792.0001,792.0001,793.0001,792.0001,793.0001,793.0001,793.0001,795.0001,797.0001,801.0001,799.0001,797.0001,797.0001,797.0001,796.0001,796.0001,798.0001,799.0001,793.0001,790.0001,789.0001,801.0001,884.0001,994.0001,969.0001,922.0001,903.0001,891.0001,883.0001,876.0001,873.0001,870.0001,867.0001,865.0001,865.0001,866.0001,868.0001,871.0001,873.0001,877.0001,880.0001,885.0001,887.0001,890.0001,898.0001,908.0001,934.0001,947.0001,926.0001,898.0001,863.0001,804.0001,805.0001,810.0001,811.0001,818.0001,814.0001,808.0001,813.0001,818.0001,823.0001,827.0001,828.0001,827.0001,827.0001,827.0001,826.0001,825.0001,826.0001,825.0001,826.0001,825.0001,825.0001,823.0001,826.0001,826.0001,826.0001,826.0001,829.0001,831.0001,832.0001,833.0001,832.0001,832.0001,831.0001,830.0001,830.0001,829.0001,829.0001,829.0001,829.0001,829.0001,827.0001,826.0001,826.0001,826.0001,826.0001,826.0001,825.0001,823.0001,822.0001,821.0001,821.0001,821.0001,822.0001,826.0001,829.0001,834.0001,833.0001,833.0001,833.0001,834.0001,833.0001,832.0001,833.0001,833.0001,835.0001,837.0001,837.0001,836.0001,835.0001,835.0001,836.0001,836.0001,831.0001,826.0001,827.0001,828.0001,829.0001,829.0001,831.0001,834.0001,835.0001,834.0001,832.0001,830.0001,828.0001,827.0001,827.0001,827.0001,826.0001,826.0001,827.0001,828.0001,829.0001,829.0001,829.0001,829.0001,829.0001,829.0001,828.0001,827.0001,827.0001,827.0001,827.0001,826.0001,827.0001,827.0001,827.0001,827.0001,826.0001,823.0001,826.0001,829.0001,829.0001,828.0001,828.0001,827.0001,825.0001,823.0001,818.0001,814.0001,813.0001,815.0001,817.0001,818.0001,820.0001,822.0001,825.0001,828.0001,828.0001,825.0001,821.0001,818.0001,817.0001,817.0001,814.0001,812.0001,809.0001,809.0001,805.0001,803.0001,804.0001,805.0001,807.0001,805.0001,805.0001,803.0001,800.0001,801.0001,802.0001,803.0001,808.0001,810.0001,810.0001,809.0001,807.0001,803.0001,799.0001,796.0001,790.0001,788.0001,793.0001,798.0001,790.0001,783.0001,788.0001,792.0001,792.0001,792.0001,790.0001,788.0001,789.0001,791.0001,790.0001,788.0001,787.0001,787.0001,793.0001,799.0001,801.0001,800.0001,789.0001,776.0001,781.0001,785.0001,785.0001,785.0001,791.0001,780.0001,781.0001,784.0001,785.0001,789.0001,795.0001,800.0001,797.0001,791.0001,803.0001,805.0001,790.0001,771.0001,773.0001,778.0001,773.0001,515,0,0,0,0,0,0,0,0,0,0,0,0,0,0,0,0,0,0,0,0,0,0,0,0,0,0,0,0,0,0,0,0,0,0,0,0,0,0,0,0,0,0,0,0,0,0,0,0,0,0,0,0,0,0,0,0,0,0,0,0,0,0,0,0,0,0,0,0,0,0,0,0,0,0,0,0,0,0,0,0,0,0,0,0,0,0,0,0,0,0,0,0,0,0,0,0,0,0,0
0,0,0,0,0,0,0,0,0,0,0,0,0,0,0,0,0,0,0,0,0,0,0,0,0,0,0,0,0,0,0,0,0,0,0,0,0,0,0,0,0,0,0,0,0,0,0,0,0,0,0,0,0,0,0,0,0,0,0,0,0,0,0,0,0,0,0,0,0,0,0,0,0,0,0,0,0,0,0,0,0,0,0,0,0,0,0,0,0,0,0,0,0,0,0,0,0,0,0,0,0,0,22,53,108,400,407,674,663,885.0001,903.0001,900.0001,909.0001,918.0001,924.0001,929.0001,930.0001,930.0001,931.0001,932.0001,933.0001,934.0001,937.0001,941.0001,946.0001,948.0001,950.0001,951.0001,953.0001,954.0001,956.0001,956.0001,958.0001,960.0001,960.0001,959.0001,960.0001,964.0001,967.0001,969.0001,969.0001,968.0001,970.0001,973.0001,975.0001,978.0001,978.0001,977.0001,976.0001,975.0001,976.0001,976.0001,978.0001,979.0001,980.0001,981.0001,984.0001,986.0001,989.0001,992.0001,998.0001,1000,999.0001,997.0001,996.0001,996.0001,1002,1008,1001,993.0001,1002,1010,1012,1011,1006,1002,1003,1003,1000,997.0001,1000,1001,998.0001,995.0001,998.0001,999.0001,999.0001,1001,1000,997.0001,975.0001,953.0001,951.0001,949.0001,954.0001,954.0001,914.0001,857.0001,845.0001,849.0001,844.0001,849.0001,854.0001,857.0001,852.0001,848.0001,823.0001,815.0001,834.0001,858.0001,820.0001,780.0001,769.0001,768.0001,768.0001,768.0001,770.0001,773.0001,772.0001,770.0001,773.0001,777.0001,775.0001,771.0001,771.0001,771.0001,772.0001,775.0001,782.0001,785.0001,789.0001,791.0001,793.0001,795.0001,798.0001,798.0001,800.0001,801.0001,802.0001,802.0001,802.0001,803.0001,802.0001,804.0001,805.0001,805.0001,802.0001,799.0001,801.0001,803.0001,805.0001,805.0001,808.0001,810.0001,809.0001,809.0001,812.0001,815.0001,814.0001,811.0001,812.0001,812.0001,810.0001,808.0001,807.0001,805.0001,809.0001,809.0001,795.0001,797.0001,874.0001,965.0001,966.0001,932.0001,913.0001,897.0001,887.0001,881.0001,875.0001,873.0001,870.0001,868.0001,867.0001,867.0001,870.0001,874.0001,876.0001,879.0001,884.0001,889.0001,892.0001,895.0001,907.0001,922.0001,937.0001,940.0001,913.0001,852.0001,826.0001,804.0001,792.0001,792.0001,810.0001,832.0001,830.0001,823.0001,827.0001,832.0001,834.0001,837.0001,838.0001,837.0001,838.0001,837.0001,836.0001,834.0001,836.0001,837.0001,835.0001,834.0001,835.0001,835.0001,836.0001,835.0001,835.0001,836.0001,839.0001,841.0001,843.0001,844.0001,843.0001,842.0001,840.0001,839.0001,838.0001,838.0001,839.0001,839.0001,840.0001,839.0001,839.0001,839.0001,839.0001,839.0001,839.0001,839.0001,838.0001,836.0001,835.0001,833.0001,831.0001,830.0001,832.0001,835.0001,838.0001,841.0001,842.0001,840.0001,841.0001,842.0001,841.0001,840.0001,840.0001,840.0001,842.0001,844.0001,845.0001,844.0001,845.0001,845.0001,845.0001,844.0001,841.0001,838.0001,837.0001,840.0001,840.0001,840.0001,841.0001,842.0001,843.0001,843.0001,840.0001,838.0001,837.0001,837.0001,839.0001,841.0001,839.0001,839.0001,839.0001,841.0001,841.0001,842.0001,841.0001,839.0001,840.0001,839.0001,838.0001,839.0001,839.0001,840.0001,839.0001,838.0001,838.0001,838.0001,837.0001,837.0001,836.0001,835.0001,837.0001,838.0001,838.0001,836.0001,837.0001,838.0001,836.0001,834.0001,831.0001,829.0001,827.0001,827.0001,826.0001,826.0001,828.0001,830.0001,835.0001,839.0001,839.0001,838.0001,835.0001,831.0001,831.0001,830.0001,827.0001,825.0001,823.0001,825.0001,819.0001,818.0001,818.0001,819.0001,820.0001,821.0001,821.0001,818.0001,816.0001,815.0001,816.0001,817.0001,819.0001,819.0001,820.0001,819.0001,817.0001,814.0001,810.0001,808.0001,805.0001,807.0001,811.0001,813.0001,805.0001,800.0001,803.0001,808.0001,809.0001,808.0001,802.0001,798.0001,800.0001,804.0001,804.0001,802.0001,800.0001,798.0001,803.0001,809.0001,809.0001,808.0001,799.0001,788.0001,784.0001,778.0001,785.0001,790.0001,790.0001,790.0001,796.0001,800.0001,801.0001,800.0001,789.0001,775.0001,771.0001,770.0001,771.0001,775.0001,782.0001,787.0001,780.0001,772.0001,514,514,257,0,0,0,0,0,0,0,0,0,0,0,0,0,0,0,0,0,0,0,0,0,0,0,0,0,0,0,0,0,0,0,0,0,0,0,0,0,0,0,0,0,0,0,0,0,0,0,0,0,0,0,0,0,0,0,0,0,0,0,0,0,0,0,0,0,0,0,0,0,0,0,0,0,0,0,0,0,0,0,0,0,0,0,0,0,0,0,0,0,0,0,0,0,0,0,0,0,0
0,0,0,0,0,0,0,0,0,0,0,0,0,0,0,0,0,0,0,0,0,0,0,0,0,0,0,0,0,0,0,0,0,0,0,0,0,0,0,0,0,0,0,0,0,0,0,0,0,0,0,0,0,0,0,0,0,0,0,0,0,0,0,0,0,0,0,0,0,0,0,0,0,0,0,0,0,0,0,0,0,0,0,0,0,0,0,0,0,0,0,0,0,0,0,0,0,0,0,0,0,0,57,131,160,416,422,680,669,914.0001,913.0001,916.0001,921.0001,928.0001,932.0001,934.0001,936.0001,936.0001,936.0001,938.0001,939.0001,941.0001,948.0001,953.0001,956.0001,959.0001,959.0001,959.0001,961.0001,962.0001,962.0001,962.0001,963.0001,967.0001,968.0001,970.0001,972.0001,974.0001,976.0001,978.0001,977.0001,976.0001,977.0001,980.0001,983.0001,986.0001,988.0001,988.0001,986.0001,984.0001,985.0001,985.0001,986.0001,988.0001,991.0001,996.0001,1006,1013,1015,1016,1020,1023,1018,1013,1015,1012,1004,989.0001,962.0001,941.0001,974.0001,1016,1023,1023,1023,1023,1022,1012,977.0001,943.0001,940.0001,944.0001,943.0001,941.0001,941.0001,940.0001,943.0001,945.0001,950.0001,946.0001,902.0001,841.0001,823.0001,828.0001,834.0001,834.0001,811.0001,788.0001,785.0001,790.0001,793.0001,792.0001,793.0001,792.0001,793.0001,790.0001,782.0001,776.0001,788.0001,800.0001,799.0001,796.0001,792.0001,788.0001,787.0001,785.0001,790.0001,795.0001,793.0001,791.0001,793.0001,793.0001,796.0001,797.0001,792.0001,790.0001,792.0001,797.0001,801.0001,805.0001,799.0001,795.0001,797.0001,802.0001,805.0001,810.0001,809.0001,809.0001,808.0001,807.0001,808.0001,809.0001,810.0001,810.0001,809.0001,809.0001,808.0001,807.0001,810.0001,813.0001,813.0001,815.0001,816.0001,817.0001,817.0001,817.0001,820.0001,822.0001,821.0001,819.0001,820.0001,821.0001,818.0001,816.0001,816.0001,817.0001,817.0001,815.0001,808.0001,812.0001,856.0001,906.0001,949.0001,949.0001,927.0001,902.0001,890.0001,885.0001,880.0001,875.0001,872.0001,871.0001,870.0001,870.0001,872.0001,875.0001,878.0001,882.0001,887.0001,893.0001,894.0001,897.0001,918.0001,938.0001,935.0001,917.0001,858.0001,820.0001,818.0001,817.0001,815.0001,817.0001,822.0001,834.0001,837.0001,837.0001,842.0001,844.0001,845.0001,844.0001,844.0001,844.0001,844.0001,844.0001,843.0001,843.0001,843.0001,844.0001,842.0001,842.0001,842.0001,842.0001,842.0001,841.0001,841.0001,843.0001,845.0001,848.0001,851.0001,853.0001,851.0001,849.0001,847.0001,846.0001,845.0001,844.0001,846.0001,846.0001,846.0001,846.0001,847.0001,849.0001,849.0001,849.0001,850.0001,850.0001,848.0001,845.0001,843.0001,840.0001,838.0001,836.0001,838.0001,841.0001,845.0001,848.0001,847.0001,844.0001,844.0001,845.0001,846.0001,846.0001,846.0001,846.0001,846.0001,848.0001,850.0001,850.0001,851.0001,852.0001,851.0001,849.0001,847.0001,847.0001,848.0001,851.0001,850.0001,848.0001,849.0001,849.0001,849.0001,848.0001,845.0001,844.0001,843.0001,844.0001,848.0001,851.0001,850.0001,849.0001,850.0001,851.0001,849.0001,848.0001,848.0001,849.0001,848.0001,847.0001,846.0001,847.0001,848.0001,849.0001,848.0001,847.0001,846.0001,849.0001,848.0001,846.0001,845.0001,844.0001,844.0001,844.0001,844.0001,844.0001,845.0001,846.0001,845.0001,843.0001,842.0001,840.0001,839.0001,837.0001,835.0001,832.0001,831.0001,832.0001,840.0001,848.0001,848.0001,844.0001,843.0001,840.0001,838.0001,837.0001,837.0001,837.0001,835.0001,835.0001,834.0001,832.0001,832.0001,833.0001,833.0001,833.0001,833.0001,832.0001,831.0001,829.0001,830.0001,831.0001,830.0001,831.0001,831.0001,830.0001,829.0001,827.0001,822.0001,819.0001,822.0001,826.0001,828.0001,827.0001,820.0001,812.0001,813.0001,815.0001,814.0001,811.0001,810.0001,808.0001,809.0001,809.0001,812.0001,814.0001,812.0001,810.0001,811.0001,813.0001,813.0001,810.0001,804.0001,798.0001,796.0001,792.0001,797.0001,800.0001,801.0001,801.0001,807.0001,813.0001,818.0001,819.0001,808.0001,796.0001,792.0001,792.0001,791.0001,781.0001,788.0001,793.0001,795.0001,793.0001,531,519,257,0,0,0,0,0,0,0,0,0,0,0,0,0,0,0,0,0,0,0,0,0,0,0,0,0,0,0,0,0,0,0,0,0,0,0,0,0,0,0,0,0,0,0,0,0,0,0,0,0,0,0,0,0,0,0,0,0,0,0,0,0,0,0,0,0,0,0,0,0,0,0,0,0,0,0,0,0,0,0,0,0,0,0,0,0,0,0,0,0,0,0,0,0,0,0,0,0,0
0,0,0,0,0,0,0,0,0,0,0,0,0,0,0,0,0,0,0,0,0,0,0,0,0,0,0,0,0,0,0,0,0,0,0,0,0,0,0,0,0,0,0,0,0,0,0,0,0,0,0,0,0,0,0,0,0,0,0,0,0,0,0,0,0,0,0,0,0,0,0,0,0,0,0,0,0,0,0,0,0,0,0,0,0,0,0,0,0,0,0,0,0,0,0,0,0,0,0,0,0,10,95,181,185,431,431,687,668,911.0001,921.0001,932.0001,937.0001,939.0001,942.0001,945.0001,944.0001,944.0001,946.0001,947.0001,948.0001,951.0001,959.0001,966.0001,968.0001,968.0001,969.0001,968.0001,970.0001,972.0001,971.0001,969.0001,971.0001,975.0001,977.0001,979.0001,984.0001,987.0001,988.0001,988.0001,987.0001,986.0001,988.0001,990.0001,992.0001,994.0001,1000,1003,1000,998.0001,999.0001,1001,1003,1003,997.0001,992.0001,993.0001,995.0001,996.0001,1000,1001,1003,992.0001,979.0001,970.0001,960.0001,953.0001,942.0001,875.0001,857.0001,885.0001,959.0001,988.0001,1008,1011,1003,985.0001,957.0001,914.0001,851.0001,843.0001,847.0001,851.0001,855.0001,852.0001,847.0001,852.0001,855.0001,860.0001,855.0001,817.0001,775.0001,769.0001,770.0001,776.0001,776.0001,770.0001,768.0001,768.0001,770.0001,771.0001,772.0001,772.0001,772.0001,771.0001,770.0001,770.0001,770.0001,770.0001,774.0001,790.0001,803.0001,807.0001,804.0001,804.0001,803.0001,805.0001,808.0001,808.0001,807.0001,805.0001,804.0001,808.0001,812.0001,809.0001,808.0001,809.0001,810.0001,815.0001,816.0001,810.0001,804.0001,805.0001,810.0001,815.0001,818.0001,818.0001,818.0001,817.0001,816.0001,817.0001,818.0001,818.0001,819.0001,818.0001,817.0001,818.0001,819.0001,822.0001,826.0001,826.0001,826.0001,827.0001,828.0001,828.0001,828.0001,829.0001,831.0001,830.0001,830.0001,831.0001,832.0001,831.0001,829.0001,829.0001,829.0001,828.0001,827.0001,822.0001,826.0001,836.0001,862.0001,920.0001,952.0001,933.0001,906.0001,895.0001,889.0001,885.0001,879.0001,876.0001,875.0001,874.0001,874.0001,876.0001,879.0001,881.0001,885.0001,890.0001,895.0001,897.0001,904.0001,931.0001,949.0001,924.0001,884.0001,827.0001,809.0001,814.0001,833.0001,833.0001,836.0001,837.0001,839.0001,844.0001,848.0001,851.0001,854.0001,854.0001,854.0001,854.0001,855.0001,855.0001,855.0001,854.0001,853.0001,853.0001,853.0001,853.0001,853.0001,853.0001,851.0001,851.0001,852.0001,852.0001,854.0001,857.0001,860.0001,864.0001,867.0001,864.0001,860.0001,858.0001,856.0001,854.0001,853.0001,855.0001,857.0001,857.0001,858.0001,860.0001,862.0001,862.0001,863.0001,865.0001,866.0001,863.0001,858.0001,855.0001,853.0001,850.0001,848.0001,849.0001,852.0001,855.0001,856.0001,855.0001,853.0001,853.0001,854.0001,855.0001,856.0001,856.0001,856.0001,856.0001,855.0001,858.0001,860.0001,862.0001,862.0001,861.0001,860.0001,859.0001,859.0001,860.0001,863.0001,862.0001,860.0001,859.0001,858.0001,857.0001,856.0001,855.0001,854.0001,853.0001,854.0001,857.0001,861.0001,861.0001,859.0001,861.0001,862.0001,861.0001,860.0001,859.0001,859.0001,858.0001,857.0001,856.0001,857.0001,859.0001,860.0001,859.0001,859.0001,860.0001,859.0001,858.0001,857.0001,857.0001,857.0001,855.0001,853.0001,853.0001,853.0001,854.0001,855.0001,855.0001,853.0001,856.0001,856.0001,852.0001,850.0001,847.0001,843.0001,840.0001,841.0001,849.0001,857.0001,858.0001,855.0001,853.0001,852.0001,848.0001,847.0001,847.0001,847.0001,847.0001,846.0001,846.0001,845.0001,845.0001,845.0001,845.0001,845.0001,845.0001,845.0001,843.0001,841.0001,841.0001,842.0001,843.0001,842.0001,841.0001,840.0001,840.0001,839.0001,836.0001,834.0001,836.0001,840.0001,841.0001,839.0001,834.0001,829.0001,827.0001,827.0001,826.0001,823.0001,820.0001,818.0001,818.0001,819.0001,823.0001,827.0001,825.0001,822.0001,821.0001,820.0001,819.0001,817.0001,814.0001,810.0001,807.0001,805.0001,807.0001,809.0001,813.0001,816.0001,819.0001,822.0001,826.0001,823.0001,814.0001,803.0001,804.0001,805.0001,799.0001,791.0001,798.0001,804.0001,809.0001,808.0001,542,526,260,0,0,0,0,0,0,0,0,0,0,0,0,0,0,0,0,0,0,0,0,0,0,0,0,0,0,0,0,0,0,0,0,0,0,0,0,0,0,0,0,0,0,0,0,0,0,0,0,0,0,0,0,0,0,0,0,0,0,0,0,0,0,0,0,0,0,0,0,0,0,0,0,0,0,0,0,0,0,0,0,0,0,0,0,0,0,0,0,0,0,0,0,0,0,0,0,0,0
0,0,0,0,0,0,0,0,0,0,0,0,0,0,0,0,0,0,0,0,0,0,0,0,0,0,0,0,0,0,0,0,0,0,0,0,0,0,0,0,0,0,0,0,0,0,0,0,0,0,0,0,0,0,0,0,0,0,0,0,0,0,0,0,0,0,0,0,0,0,0,0,0,0,0,0,0,0,0,0,0,0,0,0,0,0,0,0,0,0,0,0,0,0,0,0,0,0,0,0,8,51,124,184,189,439,438,690,660,887.0001,899.0001,946.0001,948.0001,946.0001,948.0001,953.0001,952.0001,951.0001,952.0001,953.0001,955.0001,957.0001,965.0001,973.0001,975.0001,975.0001,976.0001,977.0001,978.0001,979.0001,978.0001,977.0001,979.0001,981.0001,983.0001,986.0001,992.0001,995.0001,994.0001,993.0001,992.0001,991.0001,996.0001,1001,1001,1003,1011,1019,1019,1016,1018,1023,1023,1022,1000,973.0001,953.0001,938.0001,936.0001,930.0001,949.0001,948.0001,930.0001,899.0001,849.0001,832.0001,843.0001,876.0001,825.0001,784.0001,801.0001,826.0001,888.0001,948.0001,956.0001,945.0001,900.0001,835.0001,800.0001,790.0001,785.0001,788.0001,793.0001,797.0001,796.0001,795.0001,796.0001,796.0001,797.0001,798.0001,790.0001,777.0001,778.0001,778.0001,782.0001,784.0001,788.0001,792.0001,793.0001,795.0001,793.0001,793.0001,795.0001,797.0001,796.0001,795.0001,795.0001,797.0001,796.0001,795.0001,800.0001,809.0001,813.0001,814.0001,814.0001,813.0001,813.0001,813.0001,812.0001,813.0001,811.0001,810.0001,813.0001,818.0001,819.0001,820.0001,819.0001,819.0001,820.0001,821.0001,820.0001,817.0001,818.0001,819.0001,822.0001,825.0001,823.0001,825.0001,825.0001,827.0001,826.0001,825.0001,825.0001,825.0001,826.0001,827.0001,830.0001,833.0001,835.0001,836.0001,837.0001,836.0001,836.0001,836.0001,835.0001,834.0001,834.0001,835.0001,837.0001,838.0001,840.0001,841.0001,842.0001,841.0001,839.0001,836.0001,835.0001,834.0001,835.0001,835.0001,821.0001,823.0001,866.0001,936.0001,932.0001,913.0001,902.0001,893.0001,889.0001,884.0001,883.0001,881.0001,878.0001,877.0001,879.0001,882.0001,884.0001,889.0001,892.0001,896.0001,901.0001,910.0001,939.0001,951.0001,897.0001,819.0001,815.0001,826.0001,832.0001,840.0001,845.0001,846.0001,849.0001,851.0001,850.0001,848.0001,854.0001,859.0001,862.0001,862.0001,863.0001,864.0001,864.0001,864.0001,864.0001,864.0001,864.0001,864.0001,863.0001,862.0001,861.0001,861.0001,861.0001,861.0001,862.0001,863.0001,866.0001,870.0001,874.0001,876.0001,874.0001,870.0001,867.0001,864.0001,862.0001,861.0001,863.0001,865.0001,866.0001,868.0001,871.0001,873.0001,873.0001,874.0001,877.0001,878.0001,873.0001,866.0001,864.0001,863.0001,860.0001,856.0001,857.0001,859.0001,863.0001,865.0001,863.0001,860.0001,861.0001,863.0001,865.0001,865.0001,867.0001,867.0001,866.0001,865.0001,868.0001,871.0001,872.0001,872.0001,871.0001,868.0001,868.0001,868.0001,870.0001,872.0001,871.0001,870.0001,869.0001,868.0001,868.0001,868.0001,867.0001,865.0001,863.0001,862.0001,864.0001,866.0001,865.0001,866.0001,867.0001,869.0001,869.0001,867.0001,869.0001,868.0001,867.0001,866.0001,864.0001,865.0001,867.0001,867.0001,869.0001,869.0001,868.0001,868.0001,868.0001,868.0001,868.0001,866.0001,863.0001,859.0001,858.0001,860.0001,861.0001,862.0001,863.0001,864.0001,868.0001,870.0001,865.0001,859.0001,855.0001,852.0001,851.0001,853.0001,859.0001,862.0001,864.0001,864.0001,862.0001,859.0001,857.0001,856.0001,855.0001,853.0001,852.0001,852.0001,853.0001,853.0001,854.0001,856.0001,854.0001,853.0001,852.0001,853.0001,851.0001,848.0001,850.0001,850.0001,849.0001,849.0001,848.0001,847.0001,847.0001,847.0001,846.0001,845.0001,846.0001,847.0001,848.0001,848.0001,846.0001,841.0001,836.0001,833.0001,834.0001,835.0001,831.0001,827.0001,828.0001,829.0001,833.0001,836.0001,834.0001,831.0001,828.0001,828.0001,826.0001,825.0001,821.0001,817.0001,816.0001,815.0001,814.0001,815.0001,823.0001,830.0001,828.0001,825.0001,820.0001,816.0001,805.0001,798.0001,803.0001,809.0001,807.0001,803.0001,809.0001,812.0001,816.0001,816.0001,548,531,266,4,0,0,0,0,0,0,0,0,0,0,0,0,0,0,0,0,0,0,0,0,0,0,0,0,0,0,0,0,0,0,0,0,0,0,0,0,0,0,0,0,0,0,0,0,0,0,0,0,0,0,0,0,0,0,0,0,0,0,0,0,0,0,0,0,0,0,0,0,0,0,0,0,0,0,0,0,0,0,0,0,0,0,0,0,0,0,0,0,0,0,0,0,0,0,0,0,0
0,0,0,0,0,0,0,0,0,0,0,0,0,0,0,0,0,0,0,0,0,0,0,0,0,0,0,0,0,0,0,0,0,0,0,0,0,0,0,0,0,0,0,0,0,0,0,0,0,0,0,0,0,0,0,0,0,0,0,0,0,0,0,0,0,0,0,0,0,0,0,0,0,0,0,0,0,0,0,0,0,0,0,0,0,0,0,0,0,0,0,0,0,0,0,0,0,0,0,2,47,105,157,188,198,448,443,690,671,917.0001,934.0001,954.0001,956.0001,954.0001,958.0001,961.0001,962.0001,963.0001,966.0001,968.0001,969.0001,972.0001,977.0001,982.0001,984.0001,984.0001,984.0001,986.0001,988.0001,991.0001,991.0001,991.0001,993.0001,997.0001,999.0001,1000,995.0001,990.0001,994.0001,1001,1003,1002,1007,1006,1008,1008,1003,997.0001,995.0001,994.0001,990.0001,988.0001,996.0001,996.0001,959.0001,914.0001,864.0001,846.0001,844.0001,843.0001,854.0001,853.0001,838.0001,811.0001,787.0001,768.0001,788.0001,804.0001,782.0001,768.0001,768.0001,773.0001,816.0001,853.0001,860.0001,850.0001,812.0001,769.0001,768.0001,768.0001,768.0001,768.0001,769.0001,771.0001,774.0001,774.0001,773.0001,770.0001,773.0001,775.0001,782.0001,788.0001,789.0001,789.0001,789.0001,792.0001,799.0001,808.0001,812.0001,814.0001,813.0001,812.0001,813.0001,814.0001,813.0001,812.0001,814.0001,815.0001,814.0001,813.0001,814.0001,818.0001,821.0001,823.0001,825.0001,823.0001,822.0001,822.0001,822.0001,822.0001,821.0001,820.0001,822.0001,827.0001,830.0001,832.0001,832.0001,832.0001,831.0001,831.0001,831.0001,831.0001,831.0001,830.0001,831.0001,832.0001,832.0001,834.0001,836.0001,839.0001,838.0001,837.0001,836.0001,836.0001,837.0001,839.0001,842.0001,846.0001,847.0001,848.0001,848.0001,847.0001,847.0001,849.0001,848.0001,846.0001,845.0001,846.0001,848.0001,848.0001,851.0001,851.0001,852.0001,852.0001,850.0001,847.0001,847.0001,844.0001,845.0001,844.0001,827.0001,813.0001,836.0001,875.0001,903.0001,908.0001,906.0001,899.0001,895.0001,889.0001,886.0001,885.0001,882.0001,882.0001,883.0001,885.0001,888.0001,891.0001,893.0001,897.0001,903.0001,913.0001,941.0001,949.0001,882.0001,790.0001,800.0001,841.0001,849.0001,855.0001,858.0001,860.0001,862.0001,862.0001,860.0001,858.0001,864.0001,869.0001,871.0001,872.0001,873.0001,872.0001,873.0001,873.0001,872.0001,872.0001,872.0001,873.0001,873.0001,873.0001,872.0001,871.0001,873.0001,873.0001,873.0001,874.0001,877.0001,880.0001,883.0001,885.0001,882.0001,879.0001,877.0001,875.0001,874.0001,874.0001,875.0001,876.0001,877.0001,878.0001,880.0001,881.0001,881.0001,882.0001,884.0001,885.0001,880.0001,875.0001,873.0001,873.0001,870.0001,869.0001,871.0001,873.0001,875.0001,876.0001,872.0001,871.0001,872.0001,873.0001,874.0001,876.0001,877.0001,878.0001,877.0001,877.0001,879.0001,880.0001,880.0001,879.0001,879.0001,879.0001,879.0001,879.0001,880.0001,880.0001,881.0001,880.0001,878.0001,875.0001,877.0001,877.0001,875.0001,874.0001,872.0001,871.0001,874.0001,878.0001,878.0001,877.0001,877.0001,878.0001,877.0001,876.0001,877.0001,877.0001,876.0001,876.0001,876.0001,877.0001,878.0001,877.0001,878.0001,878.0001,877.0001,877.0001,877.0001,878.0001,879.0001,878.0001,874.0001,871.0001,870.0001,871.0001,872.0001,872.0001,873.0001,874.0001,878.0001,879.0001,875.0001,870.0001,867.0001,864.0001,864.0001,866.0001,868.0001,870.0001,871.0001,872.0001,871.0001,869.0001,868.0001,868.0001,866.0001,865.0001,865.0001,863.0001,862.0001,863.0001,864.0001,865.0001,864.0001,862.0001,863.0001,863.0001,860.0001,859.0001,858.0001,858.0001,858.0001,858.0001,857.0001,856.0001,855.0001,856.0001,856.0001,856.0001,856.0001,856.0001,856.0001,856.0001,854.0001,851.0001,846.0001,842.0001,845.0001,847.0001,843.0001,838.0001,839.0001,842.0001,845.0001,847.0001,846.0001,844.0001,841.0001,839.0001,836.0001,835.0001,832.0001,831.0001,830.0001,829.0001,827.0001,828.0001,836.0001,841.0001,840.0001,834.0001,827.0001,818.0001,811.0001,807.0001,811.0001,816.0001,818.0001,819.0001,819.0001,820.0001,826.0001,828.0001,819.0001,547,535,266,2,0,0,0,0,0,0,0,0,0,0,0,0,0,0,0,0,0,0,0,0,0,0,0,0,0,0,0,0,0,0,0,0,0,0,0,0,0,0,0,0,0,0,0,0,0,0,0,0,0,0,0,0,0,0,0,0,0,0,0,0,0,0,0,0,0,0,0,0,0,0,0,0,0,0,0,0,0,0,0,0,0,0,0,0,0,0,0,0,0,0,0,0,0,0,0,0
0,0,0,0,0,0,0,0,0,0,0,0,0,0,0,0,0,0,0,0,0,0,0,0,0,0,0,0,0,0,0,0,0,0,0,0,0,0,0,0,0,0,0,0,0,0,0,0,0,0,0,0,0,0,0,0,0,0,0,0,0,0,0,0,0,0,0,0,0,0,0,0,0,0,0,0,0,0,0,0,0,0,0,0,0,0,0,0,0,0,0,0,0,1,0,0,0,0,0,17,87,679,699,700,705,706,703,699,698,698,697,698,703,707,708,709,715,720,726,728,733,735,991.0001,991.0001,993.0001,995.0001,993.0001,992.0001,995.0001,1003,1007,1008,1012,1016,1022,1022,998.0001,976.0001,990.0001,1013,1018,1020,1019,1013,1018,1016,979.0001,943.0001,939.0001,941.0001,917.0001,900.0001,904.0001,940.0001,892.0001,809.0001,795.0001,791.0001,789.0001,791.0001,796.0001,798.0001,792.0001,787.0001,783.0001,780.0001,789.0001,796.0001,787.0001,778.0001,777.0001,781.0001,791.0001,801.0001,800.0001,797.0001,788.0001,782.0001,782.0001,782.0001,785.0001,788.0001,789.0001,792.0001,790.0001,791.0001,793.0001,793.0001,796.0001,798.0001,799.0001,802.0001,800.0001,800.0001,805.0001,809.0001,812.0001,815.0001,819.0001,822.0001,825.0001,826.0001,826.0001,826.0001,823.0001,821.0001,821.0001,823.0001,823.0001,825.0001,826.0001,827.0001,829.0001,830.0001,830.0001,830.0001,831.0001,831.0001,832.0001,832.0001,833.0001,832.0001,831.0001,833.0001,833.0001,834.0001,837.0001,839.0001,841.0001,841.0001,839.0001,838.0001,836.0001,836.0001,836.0001,838.0001,840.0001,843.0001,847.0001,850.0001,851.0001,851.0001,850.0001,848.0001,848.0001,849.0001,851.0001,854.0001,855.0001,857.0001,856.0001,856.0001,857.0001,858.0001,858.0001,857.0001,856.0001,856.0001,856.0001,601,601,601,857.0001,857.0001,858.0001,858.0001,855.0001,1108,1107,1105,1100,1088,1070,1052,829.0001,618,648,646,642,633,631,631,887.0001,887.0001,886.0001,886.0001,888.0001,891.0001,894.0001,899.0001,903.0001,911.0001,934.0001,941.0001,872.0001,791.0001,812.0001,851.0001,860.0001,863.0001,867.0001,870.0001,872.0001,872.0001,872.0001,873.0001,876.0001,880.0001,881.0001,880.0001,879.0001,877.0001,877.0001,878.0001,878.0001,877.0001,879.0001,880.0001,882.0001,883.0001,881.0001,881.0001,881.0001,881.0001,881.0001,882.0001,883.0001,886.0001,887.0001,887.0001,886.0001,884.0001,883.0001,883.0001,883.0001,884.0001,885.0001,886.0001,884.0001,882.0001,883.0001,883.0001,882.0001,881.0001,882.0001,883.0001,880.0001,878.0001,879.0001,880.0001,880.0001,881.0001,885.0001,886.0001,887.0001,885.0001,882.0001,880.0001,880.0001,881.0001,882.0001,883.0001,883.0001,884.0001,884.0001,885.0001,885.0001,884.0001,883.0001,883.0001,884.0001,885.0001,885.0001,886.0001,885.0001,885.0001,885.0001,885.0001,882.0001,879.0001,878.0001,879.0001,879.0001,880.0001,880.0001,881.0001,885.0001,889.0001,889.0001,888.0001,886.0001,884.0001,883.0001,882.0001,881.0001,880.0001,883.0001,883.0001,885.0001,887.0001,888.0001,888.0001,883.0001,879.0001,879.0001,881.0001,883.0001,885.0001,886.0001,886.0001,885.0001,883.0001,882.0001,882.0001,882.0001,882.0001,882.0001,881.0001,882.0001,881.0001,879.0001,878.0001,876.0001,874.0001,875.0001,877.0001,877.0001,877.0001,877.0001,878.0001,877.0001,876.0001,876.0001,876.0001,874.0001,874.0001,875.0001,876.0001,873.0001,871.0001,870.0001,870.0001,869.0001,869.0001,870.0001,869.0001,869.0001,869.0001,868.0001,866.0001,865.0001,865.0001,864.0001,863.0001,863.0001,863.0001,863.0001,863.0001,863.0001,863.0001,862.0001,860.0001,858.0001,855.0001,852.0001,851.0001,853.0001,855.0001,853.0001,851.0001,851.0001,851.0001,853.0001,855.0001,855.0001,855.0001,852.0001,852.0001,848.0001,845.0001,844.0001,843.0001,841.0001,841.0001,841.0001,842.0001,844.0001,847.0001,848.0001,847.0001,840.0001,831.0001,827.0001,825.0001,825.0001,828.0001,829.0001,829.0001,827.0001,826.0001,831.0001,835.0001,833.0001,822.0001,549,529,259,0,0,0,0,0,0,0,0,0,0,0,0,0,0,0,0,0,0,0,0,0,0,0,0,0,0,0,0,0,0,0,0,0,0,0,0,0,0,0,0,0,0,0,0,0,0,0,0,0,0,0,0,0,0,0,0,0,0,0,0,0,0,0,0,0,0,0,0,0,0,0,0,0,0,0,0,0,0,0,0,0,0,0,0,0,0,0,0,0,0,0,0,0,0,0,0
0,0,0,0,0,0,0,0,0,0,0,0,0,0,0,0,0,0,0,0,0,0,0,0,0,0,0,0,0,0,0,0,0,0,0,0,0,0,0,0,0,0,0,0,0,0,0,0,0,0,0,0,0,0,0,0,0,0,0,0,0,0,0,0,0,0,0,0,0,0,0,0,0,0,0,0,0,0,0,0,0,0,0,0,0,0,0,0,0,0,0,0,0,0,0,0,0,0,16,65,147,716,721,713,718,719,715,711,716,721,716,710,713,717,718,721,727,737,740,741,746,749,748,1001,1000,998.0001,1000,998.0001,999.0001,998.0001,1001,1003,998.0001,992.0001,990.0001,988.0001,948.0001,896.0001,933.0001,964.0001,980.0001,994.0001,980.0001,960.0001,964.0001,962.0001,921.0001,846.0001,845.0001,851.0001,822.0001,813.0001,836.0001,849.0001,813.0001,771.0001,768.0001,770.0001,770.0001,770.0001,770.0001,770.0001,773.0001,780.0001,787.0001,791.0001,793.0001,793.0001,797.0001,797.0001,795.0001,790.0001,783.0001,775.0001,773.0001,774.0001,783.0001,795.0001,800.0001,803.0001,805.0001,807.0001,808.0001,808.0001,807.0001,807.0001,809.0001,810.0001,811.0001,812.0001,811.0001,812.0001,812.0001,812.0001,818.0001,823.0001,823.0001,823.0001,828.0001,832.0001,834.0001,836.0001,837.0001,837.0001,835.0001,832.0001,832.0001,833.0001,834.0001,837.0001,838.0001,838.0001,838.0001,838.0001,839.0001,839.0001,840.0001,841.0001,843.0001,845.0001,846.0001,846.0001,845.0001,843.0001,843.0001,843.0001,848.0001,852.0001,853.0001,852.0001,851.0001,849.0001,848.0001,847.0001,847.0001,847.0001,850.0001,853.0001,858.0001,863.0001,865.0001,865.0001,863.0001,860.0001,859.0001,859.0001,862.0001,864.0001,867.0001,867.0001,867.0001,866.0001,868.0001,868.0001,869.0001,869.0001,868.0001,867.0001,611,609,611,611,611,867.0001,868.0001,869.0001,867.0001,1376,1374,1372,1374,1366,1324,1280,798.0001,591,639,659,652,639,637,637,636,891.0001,889.0001,888.0001,890.0001,893.0001,895.0001,898.0001,903.0001,909.0001,930.0001,934.0001,866.0001,790.0001,812.0001,859.0001,873.0001,875.0001,878.0001,881.0001,883.0001,884.0001,885.0001,887.0001,892.0001,895.0001,894.0001,893.0001,892.0001,890.0001,888.0001,888.0001,889.0001,888.0001,888.0001,889.0001,891.0001,892.0001,891.0001,892.0001,893.0001,892.0001,891.0001,891.0001,891.0001,892.0001,894.0001,894.0001,895.0001,893.0001,893.0001,894.0001,895.0001,896.0001,897.0001,898.0001,895.0001,892.0001,891.0001,891.0001,890.0001,890.0001,889.0001,889.0001,888.0001,888.0001,888.0001,889.0001,891.0001,894.0001,898.0001,900.0001,898.0001,896.0001,893.0001,892.0001,891.0001,890.0001,891.0001,892.0001,892.0001,893.0001,895.0001,896.0001,895.0001,894.0001,891.0001,891.0001,893.0001,895.0001,895.0001,895.0001,893.0001,893.0001,893.0001,893.0001,889.0001,887.0001,887.0001,888.0001,888.0001,890.0001,891.0001,892.0001,898.0001,901.0001,902.0001,900.0001,897.0001,893.0001,892.0001,891.0001,890.0001,890.0001,893.0001,894.0001,896.0001,899.0001,900.0001,900.0001,893.0001,887.0001,888.0001,890.0001,893.0001,895.0001,896.0001,898.0001,897.0001,896.0001,894.0001,896.0001,894.0001,894.0001,894.0001,893.0001,891.0001,888.0001,887.0001,887.0001,886.0001,884.0001,885.0001,886.0001,888.0001,887.0001,886.0001,886.0001,888.0001,887.0001,887.0001,887.0001,886.0001,886.0001,888.0001,889.0001,886.0001,883.0001,881.0001,880.0001,880.0001,881.0001,881.0001,882.0001,882.0001,881.0001,880.0001,879.0001,878.0001,877.0001,874.0001,873.0001,873.0001,873.0001,874.0001,873.0001,873.0001,874.0001,872.0001,869.0001,865.0001,862.0001,860.0001,860.0001,863.0001,865.0001,865.0001,863.0001,863.0001,862.0001,863.0001,865.0001,866.0001,864.0001,865.0001,864.0001,860.0001,855.0001,855.0001,855.0001,854.0001,853.0001,854.0001,855.0001,856.0001,857.0001,859.0001,859.0001,852.0001,845.0001,842.0001,841.0001,839.0001,840.0001,839.0001,840.0001,839.0001,838.0001,839.0001,842.0001,843.0001,835.0001,811.0001,527,259,0,0,0,0,0,0,0,0,0,0,0,0,0,0,0,0,0,0,0,0,0,0,0,0,0,0,0,0,0,0,0,0,0,0,0,0,0,0,0,0,0,0,0,0,0,0,0,0,0,0,0,0,0,0,0,0,0,0,0,0,0,0,0,0,0,0,0,0,0,0,0,0,0,0,0,0,0,0,0,0,0,0,0,0,0,0,0,0,0,0,0,0,0,0,0,0
0,0,0,0,0,0,0,0,0,0,0,0,0,0,0,0,0,0,0,0,0,0,0,0,0,0,0,0,0,0,0,0,0,0,0,0,0,0,0,0,0,0,0,0,0,0,0,0,0,0,0,0,0,0,0,0,0,0,0,0,0,0,0,0,0,0,0,0,0,0,0,0,0,0,0,0,0,0,0,0,0,0,0,0,0,0,0,0,0,0,0,0,0,0,0,0,0,0,37,113,174,726,736,737,740,743,734,725,721,722,727,733,731,728,729,734,742,749,748,748,756,761,759,1007,1002,1002,1007,1011,994.0001,980.0001,980.0001,978.0001,960.0001,935.0001,920.0001,902.0001,835.0001,816.0001,813.0001,829.0001,871.0001,936.0001,903.0001,835.0001,833.0001,837.0001,815.0001,793.0001,785.0001,797.0001,784.0001,781.0001,787.0001,792.0001,788.0001,782.0001,783.0001,788.0001,789.0001,789.0001,789.0001,791.0001,793.0001,798.0001,802.0001,805.0001,808.0001,808.0001,809.0001,808.0001,808.0001,807.0001,802.0001,798.0001,797.0001,798.0001,803.0001,811.0001,816.0001,819.0001,819.0001,819.0001,819.0001,819.0001,818.0001,816.0001,816.0001,816.0001,817.0001,819.0001,817.0001,817.0001,817.0001,819.0001,826.0001,830.0001,832.0001,832.0001,835.0001,837.0001,841.0001,844.0001,844.0001,843.0001,841.0001,840.0001,840.0001,842.0001,843.0001,844.0001,845.0001,847.0001,848.0001,848.0001,848.0001,847.0001,848.0001,850.0001,852.0001,856.0001,856.0001,856.0001,855.0001,855.0001,855.0001,855.0001,859.0001,863.0001,863.0001,862.0001,860.0001,861.0001,860.0001,860.0001,858.0001,859.0001,861.0001,864.0001,869.0001,872.0001,874.0001,874.0001,870.0001,866.0001,866.0001,867.0001,871.0001,874.0001,876.0001,877.0001,876.0001,874.0001,874.0001,874.0001,877.0001,877.0001,877.0001,875.0001,618,617,619,621,621,877.0001,877.0001,877.0001,877.0001,1388,1387,1385,1387,1384,1349,1313,795.0001,560,632,677,669,651,644,641,638,891.0001,891.0001,892.0001,892.0001,895.0001,895.0001,896.0001,902.0001,908.0001,928.0001,930.0001,864.0001,782.0001,811.0001,866.0001,882.0001,884.0001,888.0001,888.0001,891.0001,893.0001,894.0001,898.0001,903.0001,906.0001,907.0001,906.0001,905.0001,903.0001,901.0001,899.0001,898.0001,898.0001,897.0001,896.0001,897.0001,898.0001,899.0001,901.0001,900.0001,900.0001,898.0001,895.0001,898.0001,900.0001,901.0001,902.0001,902.0001,902.0001,903.0001,902.0001,903.0001,904.0001,905.0001,906.0001,904.0001,904.0001,901.0001,901.0001,901.0001,903.0001,900.0001,899.0001,898.0001,900.0001,899.0001,898.0001,900.0001,902.0001,905.0001,907.0001,906.0001,904.0001,902.0001,900.0001,899.0001,898.0001,899.0001,900.0001,902.0001,902.0001,904.0001,905.0001,906.0001,905.0001,903.0001,901.0001,901.0001,903.0001,903.0001,902.0001,901.0001,900.0001,899.0001,897.0001,898.0001,898.0001,898.0001,899.0001,900.0001,901.0001,901.0001,901.0001,907.0001,912.0001,911.0001,908.0001,906.0001,903.0001,901.0001,900.0001,901.0001,901.0001,903.0001,904.0001,907.0001,909.0001,909.0001,909.0001,904.0001,899.0001,899.0001,900.0001,902.0001,904.0001,906.0001,908.0001,905.0001,904.0001,904.0001,904.0001,903.0001,902.0001,902.0001,902.0001,900.0001,898.0001,897.0001,895.0001,893.0001,892.0001,892.0001,893.0001,894.0001,897.0001,897.0001,896.0001,897.0001,899.0001,898.0001,897.0001,897.0001,897.0001,898.0001,898.0001,897.0001,895.0001,891.0001,889.0001,890.0001,892.0001,892.0001,892.0001,893.0001,892.0001,891.0001,888.0001,888.0001,886.0001,885.0001,884.0001,884.0001,883.0001,883.0001,883.0001,882.0001,880.0001,879.0001,877.0001,873.0001,870.0001,869.0001,867.0001,871.0001,875.0001,872.0001,869.0001,869.0001,868.0001,870.0001,871.0001,871.0001,870.0001,871.0001,870.0001,866.0001,862.0001,861.0001,861.0001,860.0001,860.0001,861.0001,863.0001,865.0001,867.0001,867.0001,866.0001,859.0001,853.0001,851.0001,851.0001,850.0001,849.0001,848.0001,848.0001,850.0001,854.0001,850.0001,846.0001,848.0001,842.0001,555,516,256,0,1,3,1,0,0,0,0,0,0,0,0,0,0,0,0,0,0,0,0,0,0,0,0,0,0,0,0,0,0,0,0,0,0,0,0,0,0,0,0,0,0,0,0,0,0,0,0,0,0,0,0,0,0,0,0,0,0,0,0,0,0,0,0,0,0,0,0,0,0,0,0,0,0,0,0,0,0,0,0,0,0,0,0,0,0,0,0,0,0,0,0,0,0,0,0
0,0,0,0,0,0,0,0,0,0,0,0,0,0,0,0,0,0,0,0,0,0,0,0,0,0,0,0,0,0,0,0,0,0,0,0,0,0,0,0,0,0,0,0,0,0,0,0,0,0,0,0,0,0,0,0,0,0,0,0,0,0,0,0,0,0,0,0,0,0,0,0,0,0,0,0,0,0,0,0,0,0,0,0,0,0,0,0,0,0,0,0,0,0,0,1,0,2,86,182,468,732,732,727,719,721,723,717,721,726,720,714,701,695,716,745,754,754,739,726,720,722,741,1010,986.0001,963.0001,959.0001,960.0001,946.0001,921.0001,896.0001,917.0001,869.0001,840.0001,828.0001,814.0001,784.0001,769.0001,768.0001,769.0001,814.0001,852.0001,814.0001,775.0001,772.0001,777.0001,771.0001,768.0001,768.0001,768.0001,771.0001,771.0001,771.0001,772.0001,782.0001,793.0001,798.0001,801.0001,804.0001,807.0001,808.0001,808.0001,809.0001,810.0001,814.0001,818.0001,819.0001,818.0001,820.0001,821.0001,821.0001,819.0001,817.0001,816.0001,815.0001,816.0001,821.0001,828.0001,833.0001,836.0001,836.0001,834.0001,834.0001,833.0001,831.0001,829.0001,829.0001,828.0001,828.0001,829.0001,828.0001,829.0001,830.0001,832.0001,836.0001,839.0001,841.0001,840.0001,842.0001,844.0001,848.0001,852.0001,851.0001,850.0001,850.0001,851.0001,850.0001,853.0001,854.0001,855.0001,857.0001,858.0001,859.0001,860.0001,859.0001,858.0001,858.0001,859.0001,864.0001,868.0001,869.0001,868.0001,867.0001,867.0001,867.0001,867.0001,871.0001,876.0001,876.0001,874.0001,874.0001,873.0001,873.0001,874.0001,872.0001,872.0001,874.0001,876.0001,880.0001,882.0001,883.0001,883.0001,879.0001,876.0001,877.0001,877.0001,881.0001,884.0001,887.0001,887.0001,887.0001,885.0001,884.0001,884.0001,885.0001,886.0001,885.0001,884.0001,628,626,630,632,632,888.0001,888.0001,888.0001,886.0001,1141,1141,1141,1145,1142,1118,1093,795.0001,521,593,678,675,657,651,646,642,894.0001,895.0001,896.0001,896.0001,897.0001,897.0001,897.0001,900.0001,906.0001,923.0001,925.0001,855.0001,774.0001,805.0001,867.0001,888.0001,897.0001,901.0001,902.0001,903.0001,905.0001,907.0001,909.0001,916.0001,919.0001,918.0001,916.0001,917.0001,917.0001,914.0001,911.0001,909.0001,909.0001,908.0001,906.0001,907.0001,907.0001,910.0001,911.0001,910.0001,908.0001,906.0001,905.0001,907.0001,910.0001,911.0001,910.0001,912.0001,913.0001,913.0001,912.0001,912.0001,913.0001,915.0001,917.0001,917.0001,916.0001,915.0001,913.0001,914.0001,915.0001,913.0001,911.0001,911.0001,911.0001,910.0001,909.0001,910.0001,912.0001,914.0001,915.0001,915.0001,913.0001,912.0001,910.0001,910.0001,910.0001,911.0001,912.0001,912.0001,912.0001,913.0001,914.0001,915.0001,916.0001,914.0001,912.0001,911.0001,910.0001,912.0001,911.0001,910.0001,909.0001,907.0001,905.0001,906.0001,910.0001,911.0001,910.0001,911.0001,912.0001,911.0001,912.0001,917.0001,922.0001,921.0001,918.0001,914.0001,912.0001,912.0001,912.0001,911.0001,912.0001,913.0001,914.0001,916.0001,919.0001,920.0001,918.0001,915.0001,912.0001,911.0001,912.0001,914.0001,916.0001,917.0001,918.0001,917.0001,916.0001,915.0001,916.0001,915.0001,914.0001,914.0001,914.0001,913.0001,912.0001,909.0001,907.0001,905.0001,902.0001,903.0001,903.0001,906.0001,909.0001,910.0001,909.0001,909.0001,910.0001,910.0001,909.0001,909.0001,909.0001,910.0001,909.0001,909.0001,905.0001,904.0001,902.0001,902.0001,903.0001,904.0001,905.0001,904.0001,903.0001,902.0001,901.0001,899.0001,897.0001,896.0001,895.0001,895.0001,894.0001,894.0001,893.0001,891.0001,890.0001,889.0001,887.0001,884.0001,881.0001,879.0001,877.0001,882.0001,886.0001,884.0001,880.0001,879.0001,880.0001,879.0001,880.0001,880.0001,880.0001,881.0001,881.0001,877.0001,874.0001,873.0001,873.0001,873.0001,872.0001,873.0001,874.0001,876.0001,877.0001,877.0001,875.0001,868.0001,862.0001,862.0001,863.0001,863.0001,862.0001,860.0001,859.0001,864.0001,866.0001,861.0001,855.0001,857.0001,848.0001,554,512,256,0,3,8,3,0,0,0,0,0,0,0,0,0,0,0,0,0,0,0,0,0,0,0,0,0,0,0,0,0,0,0,0,0,0,0,0,0,0,0,0,0,0,0,0,0,0,0,0,0,0,0,0,0,0,0,0,0,0,0,0,0,0,0,0,0,0,0,0,0,0,0,0,0,0,0,0,0,0,0,0,0,0,0,0,0,0,0,0,0,0,0,0,0,0,0,0
0,0,0,0,0,0,0,0,0,0,0,0,0,0,0,0,0,0,0,0,0,0,0,0,0,0,0,0,0,0,0,0,0,0,0,0,0,0,0,0,0,0,0,0,0,0,0,0,0,0,0,0,0,0,0,0,0,0,0,0,0,0,0,0,0,0,0,0,0,0,0,0,0,0,0,0,0,0,0,0,0,0,0,0,0,0,0,0,0,0,0,2,0,0,0,4,9,36,124,222,494,739,714,678,670,670,687,700,723,736,704,666,633,605,690,756,767,756,722,683,626,624,708,1013,960.0001,871.0001,841.0001,837.0001,822.0001,814.0001,813.0001,813.0001,798.0001,783.0001,784.0001,790.0001,783.0001,777.0001,776.0001,777.0001,789.0001,795.0001,790.0001,781.0001,783.0001,790.0001,795.0001,790.0001,784.0001,783.0001,787.0001,795.0001,798.0001,801.0001,804.0001,803.0001,804.0001,805.0001,812.0001,817.0001,818.0001,818.0001,818.0001,820.0001,822.0001,826.0001,826.0001,825.0001,829.0001,831.0001,831.0001,830.0001,829.0001,827.0001,828.0001,829.0001,833.0001,839.0001,844.0001,847.0001,848.0001,847.0001,845.0001,841.0001,840.0001,838.0001,837.0001,838.0001,837.0001,837.0001,838.0001,840.0001,841.0001,843.0001,845.0001,846.0001,846.0001,846.0001,849.0001,851.0001,855.0001,858.0001,858.0001,857.0001,858.0001,859.0001,860.0001,861.0001,862.0001,863.0001,865.0001,866.0001,867.0001,868.0001,867.0001,866.0001,864.0001,865.0001,872.0001,879.0001,879.0001,878.0001,877.0001,876.0001,876.0001,878.0001,881.0001,885.0001,885.0001,884.0001,881.0001,879.0001,882.0001,884.0001,883.0001,883.0001,884.0001,886.0001,888.0001,889.0001,889.0001,888.0001,885.0001,885.0001,885.0001,887.0001,889.0001,892.0001,893.0001,894.0001,895.0001,894.0001,894.0001,894.0001,894.0001,894.0001,893.0001,892.0001,636,636,638,640,640,896.0001,897.0001,897.0001,893.0001,889.0001,891.0001,894.0001,896.0001,893.0001,884.0001,866.0001,799.0001,512,577,673,672,657,653,650,648,901.0001,901.0001,900.0001,900.0001,899.0001,899.0001,899.0001,899.0001,902.0001,919.0001,919.0001,850.0001,768.0001,797.0001,861.0001,890.0001,907.0001,912.0001,914.0001,915.0001,915.0001,918.0001,920.0001,924.0001,926.0001,926.0001,923.0001,924.0001,924.0001,922.0001,920.0001,919.0001,918.0001,916.0001,916.0001,917.0001,917.0001,918.0001,919.0001,917.0001,916.0001,913.0001,914.0001,917.0001,920.0001,920.0001,918.0001,919.0001,919.0001,919.0001,919.0001,920.0001,920.0001,922.0001,924.0001,925.0001,925.0001,924.0001,923.0001,925.0001,925.0001,923.0001,923.0001,922.0001,921.0001,920.0001,919.0001,919.0001,920.0001,920.0001,921.0001,921.0001,920.0001,920.0001,920.0001,919.0001,919.0001,921.0001,922.0001,921.0001,920.0001,920.0001,921.0001,922.0001,923.0001,920.0001,919.0001,919.0001,920.0001,919.0001,918.0001,916.0001,916.0001,913.0001,912.0001,915.0001,919.0001,919.0001,918.0001,917.0001,918.0001,919.0001,920.0001,926.0001,929.0001,929.0001,926.0001,924.0001,922.0001,921.0001,921.0001,920.0001,920.0001,922.0001,922.0001,924.0001,927.0001,928.0001,926.0001,923.0001,919.0001,920.0001,923.0001,924.0001,925.0001,925.0001,925.0001,926.0001,926.0001,926.0001,925.0001,924.0001,924.0001,923.0001,922.0001,922.0001,922.0001,919.0001,917.0001,915.0001,912.0001,913.0001,914.0001,916.0001,918.0001,917.0001,917.0001,918.0001,918.0001,918.0001,918.0001,919.0001,918.0001,919.0001,917.0001,915.0001,913.0001,912.0001,911.0001,911.0001,910.0001,912.0001,913.0001,912.0001,911.0001,909.0001,909.0001,907.0001,904.0001,904.0001,904.0001,903.0001,902.0001,901.0001,900.0001,899.0001,898.0001,897.0001,895.0001,893.0001,890.0001,888.0001,886.0001,891.0001,895.0001,893.0001,890.0001,889.0001,889.0001,888.0001,888.0001,889.0001,890.0001,891.0001,891.0001,889.0001,886.0001,885.0001,885.0001,885.0001,883.0001,884.0001,884.0001,884.0001,884.0001,883.0001,882.0001,875.0001,869.0001,869.0001,871.0001,871.0001,869.0001,868.0001,868.0001,870.0001,871.0001,873.0001,871.0001,862.0001,846.0001,552,512,256,0,5,14,5,0,0,0,0,0,0,0,0,0,0,0,0,0,0,0,0,0,0,0,0,0,0,0,0,0,0,0,0,0,0,0,0,0,0,0,0,0,0,0,0,0,0,0,0,0,0,0,0,0,0,0,0,0,0,0,0,0,0,0,0,0,0,0,0,0,0,0,0,0,0,0,0,0,0,0,0,0,0,0,0,0,0,0,0,0,0,0,0,0,0,0,0
0,0,0,0,0,0,0,0,0,0,0,0,0,0,0,0,0,0,0,0,0,0,0,0,0,0,0,0,0,0,0,0,0,0,0,0,0,0,0,0,0,0,0,0,0,0,0,0,0,0,0,0,0,0,0,0,0,0,0,0,0,0,0,0,0,0,0,0,0,0,0,0,0,0,0,0,0,0,0,0,0,0,0,0,0,0,0,0,0,0,0,2,0,0,0,3,49,108,442,473,466,689,653,587,579,583,599,621,669,684,646,580,547,549,608,700,714,701,661,624,575,573,627,955.0001,905.0001,839.0001,787.0001,776.0001,772.0001,771.0001,772.0001,773.0001,768.0001,768.0001,769.0001,778.0001,781.0001,791.0001,789.0001,789.0001,783.0001,776.0001,783.0001,790.0001,797.0001,801.0001,803.0001,805.0001,800.0001,797.0001,803.0001,810.0001,814.0001,818.0001,820.0001,818.0001,817.0001,816.0001,821.0001,828.0001,829.0001,829.0001,829.0001,831.0001,833.0001,835.0001,834.0001,832.0001,837.0001,840.0001,840.0001,838.0001,839.0001,838.0001,840.0001,842.0001,846.0001,852.0001,856.0001,860.0001,860.0001,859.0001,856.0001,852.0001,850.0001,849.0001,850.0001,850.0001,849.0001,849.0001,852.0001,856.0001,858.0001,858.0001,857.0001,855.0001,855.0001,855.0001,856.0001,860.0001,863.0001,866.0001,866.0001,866.0001,869.0001,869.0001,870.0001,871.0001,872.0001,873.0001,874.0001,876.0001,877.0001,877.0001,876.0001,875.0001,874.0001,876.0001,882.0001,889.0001,890.0001,889.0001,887.0001,886.0001,886.0001,888.0001,892.0001,895.0001,895.0001,893.0001,891.0001,889.0001,891.0001,893.0001,893.0001,893.0001,894.0001,895.0001,896.0001,896.0001,895.0001,894.0001,895.0001,896.0001,897.0001,898.0001,900.0001,902.0001,903.0001,904.0001,905.0001,905.0001,905.0001,905.0001,905.0001,905.0001,904.0001,903.0001,647,647,648,649,906.0001,906.0001,908.0001,909.0001,905.0001,903.0001,904.0001,906.0001,904.0001,902.0001,902.0001,892.0001,562,512,554,618,657,660,657,653,651,905.0001,905.0001,904.0001,902.0001,901.0001,900.0001,900.0001,902.0001,904.0001,919.0001,916.0001,849.0001,768.0001,778.0001,827.0001,870.0001,913.0001,924.0001,926.0001,928.0001,929.0001,931.0001,935.0001,936.0001,936.0001,936.0001,933.0001,935.0001,934.0001,933.0001,930.0001,930.0001,929.0001,928.0001,928.0001,931.0001,930.0001,930.0001,929.0001,927.0001,927.0001,926.0001,927.0001,929.0001,931.0001,932.0001,932.0001,929.0001,927.0001,927.0001,928.0001,929.0001,931.0001,932.0001,934.0001,935.0001,937.0001,936.0001,935.0001,936.0001,937.0001,937.0001,936.0001,935.0001,934.0001,933.0001,932.0001,932.0001,931.0001,931.0001,931.0001,931.0001,931.0001,931.0001,931.0001,931.0001,932.0001,932.0001,933.0001,932.0001,931.0001,930.0001,929.0001,931.0001,932.0001,929.0001,927.0001,930.0001,932.0001,931.0001,930.0001,929.0001,926.0001,925.0001,924.0001,928.0001,932.0001,931.0001,929.0001,927.0001,928.0001,929.0001,930.0001,935.0001,941.0001,939.0001,936.0001,934.0001,932.0001,933.0001,934.0001,932.0001,931.0001,932.0001,932.0001,934.0001,936.0001,938.0001,937.0001,933.0001,930.0001,931.0001,933.0001,933.0001,936.0001,936.0001,935.0001,937.0001,937.0001,937.0001,937.0001,936.0001,936.0001,935.0001,934.0001,935.0001,934.0001,932.0001,928.0001,926.0001,923.0001,925.0001,926.0001,929.0001,929.0001,929.0001,928.0001,927.0001,928.0001,927.0001,927.0001,928.0001,930.0001,930.0001,926.0001,925.0001,923.0001,921.0001,920.0001,920.0001,922.0001,923.0001,922.0001,922.0001,920.0001,919.0001,919.0001,917.0001,913.0001,913.0001,913.0001,911.0001,912.0001,911.0001,909.0001,910.0001,909.0001,909.0001,907.0001,905.0001,903.0001,899.0001,900.0001,903.0001,906.0001,906.0001,903.0001,902.0001,900.0001,899.0001,899.0001,900.0001,900.0001,903.0001,903.0001,902.0001,900.0001,899.0001,896.0001,897.0001,897.0001,896.0001,896.0001,895.0001,894.0001,892.0001,890.0001,885.0001,879.0001,879.0001,880.0001,881.0001,882.0001,880.0001,878.0001,879.0001,880.0001,883.0001,883.0001,874.0001,856.0001,567,529,268,15,17,16,5,0,0,0,0,0,0,0,0,0,0,0,0,0,0,0,0,0,0,0,0,0,0,0,0,0,0,0,0,0,0,0,0,0,0,0,0,0,0,0,0,0,0,0,0,0,0,0,0,0,0,0,0,0,0,0,0,0,0,0,0,0,0,0,0,0,0,0,0,0,0,0,0,0,0,0,0,0,0,0,0,0,0,0,0,0,0,0,0,0,0,0,0
0,0,0,0,0,0,0,0,0,0,0,0,0,0,0,0,0,0,0,0,0,0,0,0,0,0,0,0,0,0,0,0,0,0,0,0,0,0,0,0,0,0,0,0,0,0,0,0,0,0,0,0,0,0,0,0,0,0,0,0,0,0,0,0,0,0,0,0,0,0,0,0,0,0,0,0,0,0,0,0,0,0,0,0,0,0,0,0,0,0,0,0,0,0,0,2,96.00001,473,725,685,637,569,537,517,514,515,524,536,551,563,541,517,512,512,546,570,578,570,552,536,552,569,599,821.0001,811.0001,799.0001,788.0001,781.0001,781.0001,785.0001,792.0001,795.0001,790.0001,784.0001,785.0001,787.0001,788.0001,789.0001,797.0001,803.0001,807.0001,809.0001,811.0001,814.0001,813.0001,812.0001,813.0001,811.0001,810.0001,809.0001,813.0001,817.0001,819.0001,823.0001,831.0001,833.0001,831.0001,828.0001,829.0001,832.0001,833.0001,835.0001,835.0001,837.0001,840.0001,842.0001,840.0001,837.0001,841.0001,844.0001,845.0001,844.0001,845.0001,845.0001,847.0001,850.0001,854.0001,861.0001,866.0001,869.0001,868.0001,866.0001,862.0001,859.0001,858.0001,858.0001,859.0001,858.0001,859.0001,861.0001,865.0001,869.0001,871.0001,872.0001,868.0001,863.0001,863.0001,863.0001,864.0001,868.0001,871.0001,874.0001,875.0001,876.0001,879.0001,879.0001,879.0001,879.0001,880.0001,882.0001,881.0001,883.0001,885.0001,885.0001,882.0001,880.0001,882.0001,884.0001,889.0001,895.0001,895.0001,893.0001,893.0001,892.0001,892.0001,893.0001,897.0001,901.0001,901.0001,899.0001,899.0001,898.0001,898.0001,898.0001,899.0001,900.0001,902.0001,903.0001,902.0001,901.0001,901.0001,901.0001,903.0001,905.0001,906.0001,907.0001,908.0001,911.0001,911.0001,913.0001,914.0001,658,657,657,915.0001,915.0001,915.0001,913.0001,655,655,657,914.0001,915.0001,915.0001,917.0001,918.0001,919.0001,918.0001,918.0001,916.0001,910.0001,906.0001,912.0001,904.0001,595,520,535,570,637,672,665,651,651,908.0001,908.0001,907.0001,904.0001,902.0001,900.0001,900.0001,907.0001,913.0001,923.0001,915.0001,850.0001,771.0001,768.0001,781.0001,848.0001,917.0001,935.0001,933.0001,938.0001,941.0001,945.0001,946.0001,945.0001,945.0001,943.0001,943.0001,943.0001,942.0001,940.0001,938.0001,938.0001,937.0001,939.0001,941.0001,941.0001,938.0001,936.0001,935.0001,936.0001,937.0001,937.0001,938.0001,940.0001,940.0001,943.0001,943.0001,937.0001,930.0001,932.0001,935.0001,938.0001,940.0001,942.0001,943.0001,944.0001,946.0001,945.0001,945.0001,945.0001,946.0001,946.0001,945.0001,945.0001,943.0001,943.0001,942.0001,943.0001,942.0001,942.0001,942.0001,941.0001,941.0001,941.0001,941.0001,942.0001,942.0001,942.0001,941.0001,941.0001,942.0001,940.0001,940.0001,941.0001,941.0001,937.0001,935.0001,940.0001,944.0001,944.0001,943.0001,942.0001,939.0001,938.0001,938.0001,940.0001,941.0001,939.0001,938.0001,938.0001,938.0001,938.0001,939.0001,944.0001,949.0001,947.0001,943.0001,940.0001,938.0001,940.0001,942.0001,942.0001,942.0001,941.0001,941.0001,943.0001,946.0001,947.0001,944.0001,941.0001,938.0001,936.0001,938.0001,941.0001,942.0001,943.0001,943.0001,944.0001,946.0001,945.0001,946.0001,947.0001,946.0001,947.0001,946.0001,945.0001,943.0001,941.0001,937.0001,935.0001,933.0001,936.0001,937.0001,937.0001,938.0001,937.0001,937.0001,936.0001,936.0001,936.0001,936.0001,937.0001,936.0001,937.0001,934.0001,933.0001,931.0001,931.0001,929.0001,930.0001,931.0001,932.0001,932.0001,932.0001,931.0001,929.0001,927.0001,924.0001,920.0001,919.0001,919.0001,919.0001,920.0001,921.0001,921.0001,920.0001,918.0001,920.0001,918.0001,916.0001,913.0001,912.0001,912.0001,915.0001,917.0001,916.0001,914.0001,913.0001,911.0001,911.0001,910.0001,909.0001,909.0001,911.0001,913.0001,913.0001,911.0001,909.0001,905.0001,907.0001,909.0001,907.0001,906.0001,905.0001,903.0001,900.0001,897.0001,894.0001,890.0001,889.0001,889.0001,890.0001,890.0001,887.0001,884.0001,888.0001,890.0001,891.0001,890.0001,881.0001,871.0001,601,588,324,58,46,33,10,0,0,0,0,0,0,0,0,0,0,0,0,0,0,0,0,0,0,0,0,0,0,0,0,0,0,0,0,0,0,0,0,0,0,0,0,0,0,0,0,0,0,0,0,0,0,0,0,0,0,0,0,0,0,0,0,0,0,0,0,0,0,0,0,0,0,0,0,0,0,0,0,0,0,0,0,0,0,0,0,0,0,0,0,0,0,0,0,0,0,0,0
