0,0,0,256,512,1024,1024,1280,1280,1024,1024,512,256,0,0,0,0,0,0,0,0,0,0,0,0,0,0,0,0,0,0,0,0,0,0,0,0,256,256,256,256,256,256,256,256,256,256,256,256,256,256,256,256,256,256,256,256,256,256,256,256,256,256,256,256,256,256,256,256,256,256,256,256,256,256,256,256,256,256,256,256,256,256,256,256,256,256,256,256,256,256,256,256,256,256,256,256,256,256,256,256,256,256,256,256,256,256,256,256,256,256,256,256,256,256,256,256,256,256,256,256,256,256,256,256,256,256,256,256,256,256,256,256,256,256,256,256,256,256,256,256,256,256,256,256,256,256,256,256,256,256,512,1024,1792,3328,4352,4352,4864,5120,5120,4864,4352,4352,4352,4352,4352,4352,4352,4352,4352,4352,4352,4352,4352,4352,4352,4352,4352,4352,4352,4352,4352,4352,4352,4352,4352,4352,4352,4352,4352,4352,4352,4352,4352,4352,4352,4352,4352,4352,4352,4352,4352,4352,4352,4352,4352,4352,4352,4352,4352,4352,4352,4352,4352,4352,4352,4352,4352,4352,4352,4352,4352,4352,4352,4352,4352,4352,4352,4352,4352,4352,4352,4352,4352,4352,4352,4352,4352,4352,4352,4352,4352,4352,4352,4352,4352,4352,4352,4352,4352,4352,4352,4352,4352,4352,4352,4352,4352,4352,4352,4352,4352,4352,4352,4352,4352,4352,4352,4352,4352,4352,4352,4352,4352,4352,4352,4352,4352,4352,4352,4352,4352,4352,4352,4352,4352,4352,4352,4352,4352,4352,4352,4352,4352,4352,4352,4352,4352,4352,4352,4352,4352,4352,4352,4352,4352,4352,4352,4352,4352,4352,4352,4352,4352,4352,4352,4352,4352,4352,4352,4352,4352,4352,4352,4352,4352,4352,4352,4352,4352,4352,4352,4352,4352,4352,4352,4352,4352,4352,4352,4352,4352,4352,4352,4352,4352,4352,4352,4352,4352,4352,4352,4352,4352,4352,4352,4352,4352,4352,4352,4352,4352,4352,4352,4352,4352,4352,4352,4352,4352,4352,4352,4352,4352,4352,4352,4352,4352,4352,4352,4352,4352,4352,4864,5120,5120,4864,3584,1024,768.0001,1280,1792,2048,2304,2304,2304,2304,2304,2304,2048,1792,1792,1792,1792,1792,1792,1792,1792,1792,1792,1792,1792,1792,1792,1792,1792,1792,1792,1792,1792,1792,1792,1792,1792,1792,1792,1792,1792,1792,1792,1792,1792,1792,1792,1792,1792,1792,1792,1792,1792,1792,1792,1792,1792,1792,1792,1792,1792,1792,1792,1792,1792,1792,1792,1792,1792,1792,1792,1792,1792,1792,1792,1792,1792,1792,1792,1792,1792,1792,1792,1792,1792,1792,1792,1792,1792,1792,1792,1792,1792,1792,1792,1792,1792,1792,1792,1792,1792,1792,1792,1792,1792,1792,1792,1792,1792,1792,1792,1792,1792,1792,1792,1792,1792,1792,1792,1792,1792,1792,1792,1792,1792,1792,1792,1792,1792,1792,1792,1792,1792,1792,1792,2048,1792,1280,768.0001,256,0,0,0,0,0,0,0,0,0,0,0,0,0,0,0,0,0,256,0,0,256,1024,1536,1280,1280,1536,1792,1792,1792,1792,1280,512,512,1024,2048,3584,3840,2304,1536,1024,768.0001,1024,1280,1280,1280,1280,1280,1280,1024,512,256,0,0,0,256,1024,1280,1792,1536,1280,1024,512,1024,3584,5120,4864,3328,1024,256,0,0,768.0001,1536,1280,1280,1280,1280,1280,1280,1280,768.0001,256,256,1024,2048,4096,5376,5888,5888,5120,4864,4864,4864,4864,4864,5120,4864,3840,3840,4864,5376,5632,5632,5376,5376,5632,5632,5632,5632,5632,5632,5632,5632
0,0,0,256,512,1024,1024,1280,1280,1024,1024,512,256,0,0,0,0,0,0,0,0,0,0,0,0,0,0,0,0,0,0,0,0,0,0,0,0,256,256,256,256,256,256,256,256,256,256,256,256,256,256,256,256,256,256,256,256,256,256,256,256,256,256,256,256,256,256,256,256,256,256,256,256,256,256,256,256,256,256,256,256,256,256,256,256,256,256,256,256,256,256,256,256,256,256,256,256,256,256,256,256,256,256,256,256,256,256,256,256,256,256,256,256,256,256,256,256,256,256,256,256,256,256,256,256,256,256,256,256,256,256,256,256,256,256,256,256,256,256,256,256,256,256,256,256,0,0,0,0,0,0,512,1280,2304,3584,4352,4352,4864,4864,4864,4864,4352,4352,4352,4352,4352,4352,4352,4352,4352,4352,4352,4352,4352,4352,4352,4352,4352,4352,4352,4352,4352,4352,4352,4352,4352,4352,4352,4352,4352,4352,4352,4352,4352,4352,4352,4352,4352,4352,4352,4352,4352,4352,4352,4352,4352,4352,4352,4352,4352,4352,4352,4352,4352,4352,4352,4352,4352,4352,4352,4352,4352,4352,4352,4864,4864,4864,4864,4864,4864,4864,4864,4864,4864,4864,4864,4864,4864,4864,4864,4864,4864,4864,4864,4864,4864,4864,4864,4352,4352,4352,4352,4352,4352,4352,4352,4352,4352,4352,4352,4352,4352,4352,4352,4352,4352,4352,4352,4352,4352,4352,4352,4352,4352,4352,4352,4352,4352,4352,4352,4352,4352,4352,4352,4352,4352,4352,4352,4352,4352,4352,4352,4352,4352,4352,4352,4352,4352,4352,4352,4352,4352,4352,4352,4352,4352,4352,4352,4352,4352,4352,4352,4352,4352,4352,4352,4352,4352,4352,4352,4352,4352,4352,4352,4352,4352,4352,4352,4352,4352,4352,4352,4352,4352,4352,4352,4352,4352,4352,4352,4352,4352,4352,4352,4352,4352,4352,4352,4352,4352,4352,4352,4352,4352,4352,4352,4352,4352,4352,4352,4352,4352,4352,4352,4352,4352,4352,4352,4352,4352,4352,4352,4352,4352,4352,4352,4352,4352,4352,4352,4352,4352,4352,4864,4864,4864,4864,3328,1024,512,1280,1792,2048,2304,2304,2304,2304,2304,2304,2048,1792,1792,1792,1792,1792,1792,1792,1792,1792,1792,1792,1792,1792,1792,1792,1792,1536,1536,1792,1792,1792,1792,1792,1792,1792,1792,1792,1792,1792,1792,1792,1792,1792,1792,1792,1792,1792,1792,1792,1792,1792,1792,1792,1792,1792,1792,1792,1792,1792,1792,1792,1792,1792,1792,1792,1792,1792,1792,1792,1792,2048,2048,2048,2048,1792,1792,1792,1792,1792,1792,1792,1792,1792,1792,1792,1792,1792,1792,1792,1792,1792,1792,1792,1792,1792,1792,1792,1792,1792,1792,1792,1792,1792,1792,1792,1792,1792,1792,1792,1792,1792,1792,1792,1792,1792,1792,1792,1792,1792,1792,1792,1792,1792,1792,1792,1792,1792,1792,1792,1792,1536,1792,2048,1792,1280,1024,256,256,256,256,0,0,0,0,0,0,0,0,0,0,0,0,256,256,256,256,0,256,1024,1792,1536,1536,1536,1792,1536,1792,1536,1024,512,512,1280,2304,3584,3840,2304,1536,768.0001,768.0001,1024,1280,1280,1280,1280,1280,1280,1024,256,256,0,0,0,256,1024,1536,1792,1536,1280,1024,256,1024,3584,4864,4352,3328,1024,256,0,0,512,1280,1280,1280,1280,1280,1280,1280,1280,768.0001,256,256,768.0001,1792,4096,5632,5888,5632,5120,4864,4864,4864,4864,4864,4864,4864,4096,4096,5120,5376,5632,5632,5376,5376,5632,5632,5632,5632,5632,5632,5632,5632
0,0,0,256,512,1024,1024,1280,1280,1024,1024,512,256,0,0,0,0,0,0,0,0,0,0,0,0,0,0,0,0,0,0,0,0,0,0,0,0,256,256,256,256,256,256,256,256,256,256,256,256,256,256,256,256,256,256,256,256,256,256,256,256,256,256,256,256,256,256,256,256,256,256,256,256,256,256,256,256,256,256,256,256,256,256,256,256,256,256,256,256,256,256,256,256,256,256,256,256,256,256,256,256,256,256,256,256,256,256,256,256,256,256,256,256,256,256,256,256,256,256,256,256,256,256,256,256,256,256,256,256,256,256,256,256,256,256,256,256,256,256,256,256,256,256,256,0,0,0,0,0,0,0,512,2304,3584,3840,4352,4352,4352,4864,4864,4352,4352,4352,4352,4352,4352,4352,4352,4352,4352,4352,4352,4352,4352,4352,4352,4352,4352,4352,4352,4352,4352,4352,4352,4352,4352,4352,4352,4352,4352,4352,4352,4352,4352,4352,4352,4352,4352,4352,4352,4352,4352,4352,4352,4352,4352,4352,4352,4352,4352,4352,4352,4352,4352,4352,4352,4352,4352,4352,4352,4352,4352,4352,4864,4864,5120,5120,5120,5120,5120,5120,5120,5120,5120,5120,5120,5120,5120,5120,5120,5120,5120,5120,5120,5120,5120,5120,4864,4864,4352,4352,4352,4352,4352,4352,4352,4352,4352,4352,4352,4352,4352,4352,4352,4352,4352,4352,4352,4352,4352,4352,4352,4352,4352,4352,4352,4352,4352,4352,4352,4352,4352,4352,4352,4352,4352,4352,4352,4352,4352,4352,4352,4352,4352,4352,4352,4352,4352,4352,4352,4352,4352,4352,4352,4352,4352,4352,4352,4352,4352,4352,4352,4352,4352,4352,4352,4352,4352,4352,4352,4352,4352,4352,4352,4352,4352,4352,4352,4352,4352,4352,4352,4352,4352,4352,4352,4352,4352,4352,4352,4352,4352,4352,4352,4352,4352,4352,4352,4352,4352,4352,4352,4352,4352,4352,4352,4352,4352,4352,4352,4352,4352,4352,4352,4352,4352,4352,4352,4352,4352,4352,4352,4352,4352,4352,4352,4352,4352,4352,4352,4352,4352,4352,4352,4864,4864,4352,3328,1024,512,1024,1536,2048,2304,2304,2304,2304,2304,2304,2048,1792,1792,1792,1792,1792,1792,1792,1792,1792,1792,1792,1792,1792,1792,1792,1536,1280,1280,1536,1792,2048,2048,2048,2048,1792,1792,1792,1792,1792,1792,1792,1792,1792,1792,1792,1792,1792,1792,1792,1792,1792,1792,1792,1792,1792,1792,1792,1792,1792,1792,1792,1792,1792,1792,1792,1792,1792,1792,2048,2304,2304,2560,2560,2304,2304,2048,2048,2048,2048,2048,2048,2048,2048,2048,2048,2048,2048,2048,2048,2048,2048,2048,2048,2048,2048,2048,2048,2048,2048,2048,2048,2048,2048,2048,2048,2048,2048,2048,1792,1792,2048,2048,1792,1792,1792,1792,1792,1792,1792,1792,1792,1792,1792,1792,1792,1792,1792,1792,1792,1536,1280,1536,1792,1792,1280,1024,512,256,256,0,0,0,0,0,0,0,0,0,0,0,0,256,1024,1280,512,256,0,256,1280,2048,2048,1792,1792,1536,1280,1280,1024,768.0001,256,512,1792,3584,3840,3584,2560,1792,1024,1024,1024,1280,1280,1280,1280,1280,1280,1024,256,0,0,0,256,512,1280,1792,1792,1792,1536,1024,256,512,2560,3840,3584,2304,1024,256,0,0,256,512,1024,1280,1280,1280,1280,1280,1280,1024,512,512,768.0001,2048,4096,5376,5120,5888,5888,5888,5888,5888,5888,5888,5888,5632,5632,5632,5888,5888,6144,6144,5888,5888,6144,6144,6144,6144,6144,6144,6144,6144
0,0,0,256,512,1024,1024,1280,1280,1024,1024,512,256,0,0,0,0,0,0,0,0,0,0,0,0,0,0,0,0,0,0,0,0,0,0,0,0,256,256,256,256,256,256,256,256,256,256,256,256,256,256,256,256,256,256,256,256,256,256,256,256,256,256,256,256,256,256,256,256,256,256,256,256,256,256,256,256,256,256,256,256,256,256,256,256,256,256,256,256,256,256,256,256,256,256,256,256,256,256,256,256,256,256,256,256,256,256,256,256,256,256,256,256,256,256,256,256,256,256,256,256,256,256,256,256,256,256,256,256,256,256,256,256,256,256,256,256,256,256,256,256,256,256,256,0,0,0,0,0,0,0,512,2560,4096,4096,4352,4352,4352,4352,4352,4352,4352,4352,4352,4352,4352,4352,4352,4352,4352,4352,4352,4352,4352,4352,4352,4352,4352,4352,4352,4352,4352,4352,4352,4352,4352,4352,4352,4352,4352,4352,4352,4352,4352,4352,4352,4352,4352,4352,4352,4352,4352,4352,4352,4352,4352,4352,4352,4352,4352,4352,4352,4352,4352,4352,4352,4352,4352,4352,4352,4352,4352,4352,4352,4864,5120,5120,5120,5120,5120,5120,5120,5120,5120,5120,5120,5120,5120,5120,5120,5120,5120,5120,5120,5120,5120,5120,4864,4352,4352,4352,4352,4352,4352,4352,4352,4352,4352,4352,4352,4352,4352,4352,4352,4352,4352,4352,4352,4352,4352,4352,4352,4352,4352,4352,4352,4352,4352,4352,4352,4352,4352,4352,4352,4352,4352,4352,4352,4352,4352,4352,4352,4352,4352,4352,4352,4352,4352,4352,4352,4352,4352,4352,4352,4352,4352,4352,4352,4352,4352,4352,4352,4352,4352,4352,4352,4352,4352,4352,4352,4352,4352,4352,4352,4352,4352,4352,4352,4352,4352,4352,4352,4352,4352,4352,4352,4352,4352,4352,4352,4352,4352,4352,4352,4352,4352,4352,4352,4352,4352,4352,4352,4352,4352,4352,4352,4352,4352,4352,4352,4352,4352,4352,4352,4352,4352,4352,4352,4352,4352,4352,4352,4352,4352,4352,4352,4352,4352,4352,4352,4352,4352,4352,4352,4864,4864,4864,3584,1024,512,1024,1536,1792,2048,2048,2048,2048,2048,2048,2048,1792,1536,1536,1536,1536,1536,1536,1536,1536,1536,1536,1536,1536,1536,1536,1536,1536,1536,1792,1792,2048,2048,2048,2048,1792,1536,1536,1536,1536,1536,1536,1536,1536,1536,1536,1536,1536,1536,1536,1536,1536,1536,1536,1536,1536,1536,1536,1536,1536,1536,1536,1536,1536,1536,1536,1536,1536,1536,1792,2048,2304,2560,2560,2560,2304,2048,2048,2048,2048,2048,2048,2048,2048,2048,2048,2048,2048,2048,2048,2048,2048,2048,2048,2048,2048,2048,2048,2048,2048,2048,2048,2048,2048,2048,2048,2304,2304,2304,1792,1792,2304,2304,1792,1536,1792,1792,1792,1792,1792,1792,1792,1792,1792,1792,1792,1792,1792,1792,1792,1792,1536,1536,1792,1792,1536,1024,768.0001,512,256,256,256,256,256,256,256,0,0,0,0,0,0,256,1536,1792,1024,256,0,0,1280,2048,2048,2048,1792,1536,1280,1280,1024,512,256,512,2304,3840,3840,3584,2560,1792,1024,1024,1024,1280,1280,1280,1280,1280,1280,1024,256,0,0,0,256,768.0001,1280,1536,1792,1792,1536,1024,256,256,1536,2304,2304,1536,512,256,0,0,256,512,1024,1024,1024,1024,1024,1024,1024,1024,768.0001,512,768.0001,1536,3840,5120,4864,5376,5632,5632,5632,5632,5632,5632,5632,5632,5632,5632,5632,5632,5632,5632,5632,5632,5632,5632,5632,5632,5632,5632,5632,5632
0,0,0,256,512,1024,1024,1280,1280,1024,1024,512,256,0,0,0,0,0,0,0,0,0,0,0,0,0,0,0,0,0,0,0,0,0,0,0,0,256,256,256,256,256,256,256,256,256,256,256,256,256,256,256,256,256,256,256,256,256,256,256,256,256,256,256,256,256,256,256,256,256,256,256,256,256,256,256,256,256,256,256,256,256,256,256,256,256,256,256,256,256,256,256,256,256,256,256,256,256,256,256,256,256,256,256,256,256,256,256,256,256,256,256,256,256,256,256,256,256,256,256,256,256,256,256,256,256,256,256,256,256,256,256,256,256,256,256,256,256,256,256,256,256,256,256,0,0,0,0,0,0,0,512,2560,4096,4096,4352,4352,4352,4352,4352,4352,4352,4352,4352,4352,4352,4352,4352,4096,4096,4096,4096,4096,4096,4096,4096,4096,4096,4096,4096,4096,4096,4096,4096,4096,4096,4096,4096,4096,4096,4096,4096,4096,4096,4096,4096,4096,4096,4096,4096,4096,4096,4096,4096,4096,4096,4096,4096,4096,4096,4096,4096,4096,4096,4096,4096,4096,4096,4096,4096,4096,4096,4096,4096,4352,4864,4864,4864,4864,4864,4864,4864,4864,4864,4864,4864,4864,4864,4864,4864,4864,4864,4864,4864,4864,4864,4864,4352,4096,4096,4096,4096,4096,4096,4096,4096,4096,4096,4096,4096,4096,4096,4096,4096,4096,4096,4096,4096,4096,4096,4096,4096,4096,4096,4096,4096,4096,4096,4096,4096,4096,4096,4096,4096,4096,4096,4096,4096,4096,4096,4096,4096,4096,4096,4096,4096,4096,4096,4096,4096,4096,4096,4096,4096,4096,4096,4096,4096,4096,4096,4096,4096,4096,4096,4096,4096,4096,4096,4096,4096,4096,4096,4096,4096,4096,4096,4096,4096,4096,4096,4096,4096,4096,4096,4096,4096,4096,4096,4096,4096,4096,4096,4096,4096,4096,4096,4096,4096,4096,4096,4096,4096,4096,4096,4096,4096,4096,4096,4096,4096,4096,4096,4096,4096,4096,4096,4096,4096,4096,4096,4096,4096,4096,4096,4096,4096,4096,4096,4096,4096,4096,4096,4096,4096,4864,5120,5120,3840,1024,512,1280,1536,1792,1792,1792,1792,1792,1792,1792,1792,1536,1280,1280,1280,1280,1280,1280,1280,1280,1280,1280,1280,1280,1280,1280,1536,1792,2048,2048,2048,1792,1792,1792,1792,1536,1280,1280,1280,1280,1280,1280,1280,1280,1280,1280,1280,1280,1280,1280,1280,1280,1280,1280,1280,1280,1280,1280,1280,1280,1280,1280,1280,1280,1280,1280,1280,1024,1024,1280,1536,1792,2048,2304,2304,2048,1792,1792,1792,1792,1792,1792,1792,1792,1792,1792,1792,1792,1792,1792,1792,1792,1792,1792,1792,1792,1792,1792,1792,1792,1792,1792,1792,1792,1792,1792,2048,2560,2304,1536,1536,2304,2304,1536,1536,1792,2048,2048,2048,2048,2048,2048,2048,2048,2048,2048,2048,2048,2048,2048,2048,1792,1792,2048,2048,1792,1280,1024,512,256,256,256,256,256,256,256,0,0,0,0,0,0,256,1536,2048,1024,512,0,0,1024,1792,1792,1792,1792,1536,1280,1280,1024,512,256,512,2304,3840,3840,3584,2560,1792,1024,1024,1024,1280,1280,1280,1280,1280,1280,1024,256,0,0,0,256,512,1024,1280,1536,1536,1280,768.0001,0,0,512,1024,1024,512,256,0,0,0,256,512,1024,1024,1024,1024,1024,1024,1024,1024,768.0001,768.0001,768.0001,1280,3072,4096,4864,5120,5376,5376,5376,5376,5376,5376,5376,5376,5376,5376,5376,5376,5376,5376,5376,5376,5376,5376,5376,5376,5376,5376,5376,5376
0,0,0,256,512,1024,1024,1280,1280,1024,1024,512,256,0,0,0,0,0,0,0,0,0,0,0,0,0,0,0,0,0,0,0,0,0,0,0,0,256,256,256,256,256,256,256,256,256,256,256,256,256,256,256,256,256,256,256,256,256,256,256,256,256,256,256,256,256,256,256,256,256,256,256,256,256,256,256,256,256,256,256,256,256,256,256,256,256,256,256,256,256,256,256,256,256,256,256,256,256,256,256,256,256,256,256,256,256,256,256,256,256,256,256,256,256,256,256,256,256,256,256,256,256,256,256,256,256,256,256,256,256,256,256,256,256,256,256,256,256,256,256,256,256,256,256,0,0,0,0,0,0,0,512,2560,4096,4096,4352,4352,4352,4352,4352,4352,4352,4352,4352,4352,4352,4352,4352,4096,4096,4096,4096,4096,4096,4096,4096,4096,4096,4096,4096,4096,4096,4096,4096,4096,4096,4096,4096,4096,4096,4096,4096,4096,4096,4096,4096,4096,4096,4096,4096,4096,4096,4096,4096,4096,4096,4096,4096,4096,4096,4096,4096,4096,4096,4096,4096,4096,4096,4096,4096,4096,4096,4096,4096,4096,4352,4352,4352,4352,4352,4352,4352,4352,4352,4352,4352,4352,4352,4352,4352,4352,4352,4352,4352,4352,4352,4352,4096,4096,4096,4096,4096,4096,4096,4096,4096,4096,4096,4096,4096,4096,4096,4096,4096,4096,4096,4096,4096,4096,4096,4096,4096,4096,4096,4096,4096,4096,4096,4096,4096,4096,4096,4096,4096,4096,4096,4096,4096,4096,4096,4096,4096,4096,4096,4096,4096,4096,4096,4096,4096,4096,4096,4096,4096,4096,4096,4096,4096,4096,4096,4096,4096,4096,4096,4096,4096,4096,4096,4096,4096,4096,4096,4096,4096,4096,4096,4096,4096,4096,4096,4096,4096,4096,4096,4096,4096,4096,4096,4096,4096,4096,4096,4096,4096,4096,4096,4096,4096,4096,4096,4096,4096,4096,4096,4096,4096,4096,4096,4096,4096,4096,4096,4096,4096,4096,4096,4096,4096,4096,4096,4096,4096,4096,4096,4096,4096,4096,4096,4096,4096,4096,4096,4096,4096,4864,4864,4864,3584,1024,512,1024,1536,1792,1792,1792,1792,1792,1792,1792,1792,1536,1280,1280,1280,1280,1280,1280,1280,1280,1280,1280,1280,1280,1280,1280,1536,1792,2048,2048,2048,1792,1792,1792,1792,1536,1280,1280,1280,1280,1280,1280,1280,1280,1280,1280,1280,1280,1280,1280,1280,1280,1280,1280,1280,1280,1280,1280,1280,1280,1280,1280,1280,1280,1280,1280,1024,1024,1024,1024,1280,1536,1792,2048,2048,1792,1792,1792,1792,1792,1792,1792,1792,1792,1792,1792,1792,1792,1792,1792,1792,1792,1792,1792,1792,1792,1792,1792,1792,1792,1792,1792,1792,1792,1792,1792,1792,2304,2048,1536,1536,2304,2304,1536,1536,1792,2048,2048,2048,2048,2048,2048,2048,2048,2048,2048,2048,2048,2048,2048,1792,1536,1536,1792,1792,1536,1280,768.0001,512,256,256,256,256,256,256,256,0,0,0,0,0,0,256,1536,2048,1280,512,0,0,1024,1536,1792,1792,1792,1536,1280,1280,1024,512,256,512,2304,3840,3840,3584,2560,1792,1024,1024,1024,1280,1280,1280,1280,1280,1280,1024,256,256,0,0,256,256,512,768.0001,1536,1536,1280,768.0001,0,0,256,512,256,256,0,0,0,256,512,512,1024,1024,1024,1024,1024,1024,1024,1024,1024,768.0001,512,1024,1792,3072,4096,5120,5376,5376,5376,5376,5376,5376,5376,5376,5376,5376,5376,5376,5376,5376,5376,5376,5376,5376,5376,5376,5376,5376,5376,5376
0,0,0,256,512,1024,1024,1280,1280,1024,1024,512,256,0,0,0,0,0,0,0,0,0,0,0,0,0,0,0,0,0,0,0,0,0,0,0,0,256,256,256,256,256,256,256,256,256,256,256,256,256,256,256,256,256,256,256,256,256,256,256,256,256,256,256,256,256,256,256,256,256,256,256,256,256,256,256,256,256,256,256,256,256,256,256,256,256,256,256,256,256,256,256,256,256,256,256,256,256,256,256,256,256,256,256,256,256,256,256,256,256,256,256,256,256,256,256,256,256,256,256,256,256,256,256,256,256,256,256,256,256,256,256,256,256,256,256,256,256,256,256,256,256,256,256,0,0,0,0,0,0,0,512,2560,4096,4096,4352,4352,4352,4352,4352,4352,4352,4352,4352,4352,4352,4352,4352,4352,4352,4352,4352,4352,4352,4352,4352,4352,4352,4352,4352,4352,4352,4352,4352,4352,4352,4352,4352,4352,4352,4352,4352,4352,4352,4352,4352,4352,4352,4352,4352,4352,4352,4352,4352,4352,4352,4352,4352,4352,4352,4352,4352,4352,4352,4352,4352,4352,4352,4352,4352,4352,4352,4352,4096,4096,4096,4096,4096,4096,4096,4096,4096,4096,4096,4096,4096,4096,4096,4096,4096,4096,4096,4096,4096,4096,4096,4096,4096,4096,4352,4352,4352,4352,4352,4352,4352,4352,4352,4352,4352,4352,4352,4352,4352,4352,4352,4352,4352,4352,4352,4352,4352,4352,4352,4352,4352,4352,4352,4352,4352,4352,4352,4352,4352,4352,4352,4352,4352,4352,4352,4352,4352,4352,4352,4352,4352,4352,4352,4352,4352,4352,4352,4352,4352,4352,4352,4352,4352,4352,4352,4352,4352,4352,4352,4352,4352,4352,4352,4352,4352,4352,4352,4352,4352,4352,4352,4352,4352,4352,4352,4352,4352,4352,4352,4352,4352,4352,4352,4352,4352,4352,4352,4352,4352,4352,4352,4352,4352,4352,4352,4352,4352,4352,4352,4352,4352,4352,4352,4352,4352,4352,4352,4352,4352,4352,4352,4352,4352,4352,4352,4352,4352,4352,4352,4352,4352,4352,4352,4352,4352,4352,4352,4352,4352,4096,4096,4096,3072,512,256,1024,1536,1792,2048,2048,2048,2048,2048,2048,2048,1792,1536,1536,1536,1536,1536,1536,1536,1536,1536,1536,1536,1536,1536,1536,1536,1792,1792,1792,1792,2048,2048,2048,2048,1792,1536,1536,1536,1536,1536,1536,1536,1536,1536,1536,1536,1536,1536,1536,1536,1536,1536,1536,1536,1536,1536,1536,1536,1536,1536,1536,1536,1536,1536,1536,1280,1024,1024,1024,1280,1536,1792,2048,2048,1792,1792,1792,1792,1792,1792,1792,1792,1792,1792,1792,1792,1792,1792,1792,1792,1792,1792,1792,1792,1792,1792,1792,1792,1792,1792,1792,1792,1792,1792,1792,1792,1536,1536,1280,1280,1792,1792,1792,1536,1536,1536,1536,1536,1536,1536,1536,1536,1536,1536,1536,1536,1536,1536,1536,1280,1024,1024,1280,1280,1024,768.0001,512,256,256,256,256,256,256,256,256,0,0,0,0,0,0,256,1536,2304,2048,1024,0,0,512,1024,1280,1792,1792,1536,1280,1280,1024,512,256,512,2304,3840,3840,3584,2560,1792,1024,1024,1024,1280,1280,1280,1280,1280,1280,1024,512,256,256,0,0,0,0,256,1024,1280,1024,512,256,0,256,256,0,0,0,0,256,256,512,768.0001,1280,1536,1536,1536,1536,1536,1536,1280,1024,512,256,256,512,1536,3584,5376,5632,5632,5632,5632,5632,5632,5632,5632,5632,5632,5632,5632,5632,5632,5632,5632,5632,5632,5632,5632,5632,5632,5632,5632
0,0,0,256,512,1024,1024,1280,1280,1024,1024,512,256,0,0,0,0,0,0,0,0,0,0,0,0,0,0,0,0,0,0,0,0,0,0,0,0,256,256,256,256,256,256,256,256,256,256,256,256,256,256,256,256,256,256,256,256,256,256,256,256,256,256,256,256,256,256,256,256,256,256,256,256,256,256,256,256,256,256,256,256,256,256,256,256,256,256,256,256,256,256,256,256,256,256,256,256,256,256,256,256,256,256,256,256,256,256,256,256,256,256,256,256,256,256,256,256,256,256,256,256,256,256,256,256,256,256,256,256,256,256,256,256,256,256,256,256,256,256,256,256,256,256,256,0,0,0,0,0,0,0,512,2560,4096,4096,4352,4352,4352,4352,4352,4352,4352,4352,4352,4352,4352,4352,4864,4864,4864,4864,4864,4864,4864,4864,4864,4864,4864,4864,4864,4864,4864,4864,4864,4864,4864,4864,4864,4864,4864,4864,4864,4864,4864,4864,4864,4864,4864,4864,4864,4864,4864,4864,4864,4864,4864,4864,4864,4864,4864,4864,4864,4864,4864,4864,4864,4864,4864,4864,4864,4864,4864,4864,4864,4864,4864,4864,4864,4864,4864,4864,4864,4864,4864,4864,4864,4864,4864,4864,4864,4864,4864,4864,4864,4864,4864,4864,4864,5120,5376,5376,5376,5376,5376,5376,5376,5376,5376,5376,5376,5376,5376,5376,5376,5376,5376,5376,5376,5376,5376,5376,5376,5376,5376,5376,5376,5376,5376,5376,5376,5376,5376,5376,5376,5376,5376,5376,5376,5376,5376,5376,5376,5376,5376,5376,5376,5376,5376,5376,5376,5376,5376,5376,5376,5376,5376,5376,5376,5376,5376,5376,5376,5376,5376,5376,5376,5376,5376,5376,5376,5376,5376,5376,5376,5376,5376,5376,5376,5376,5376,5376,5376,5376,5376,5376,5376,5376,5376,5376,5376,5376,5376,5376,5376,5376,5376,5376,5376,5376,5376,5376,5376,5376,5376,5376,5376,5376,5376,5376,5376,5376,5376,5376,5376,5376,5376,5376,5376,5376,5376,5376,5376,5376,5376,5376,5376,5376,5376,5376,5376,5376,5376,5376,5376,5120,5120,5120,3840,1024,768.0001,1536,2304,3072,3072,3072,3072,3072,3072,3072,3072,2560,2304,2304,2304,2304,2304,2304,2304,2304,2304,2304,2304,2304,2304,2304,2304,1792,1536,1792,2048,2560,3072,3328,3072,2560,2304,2304,2304,2304,2304,2304,2304,2304,2304,2304,2304,2304,2304,2304,2304,2304,2304,2304,2304,2304,2304,2304,2304,2304,2304,2304,2304,2304,2304,2304,2048,1536,1280,1536,1792,2048,2304,2560,2560,2304,2304,2304,2304,2304,2304,2304,2304,2304,2304,2304,2304,2304,2304,2304,2304,2304,2304,2304,2304,2304,2304,2304,2304,2304,2304,2304,2304,2304,2304,2304,2048,2048,1792,2048,1792,1280,1280,1280,1536,1536,1536,1536,1536,1536,1536,1536,1536,1536,1536,1536,1536,1536,1536,1536,1280,1024,1024,1280,1280,1024,768.0001,512,256,256,256,256,256,256,256,256,0,0,0,0,0,0,256,1536,2304,2560,1536,0,0,512,1024,1280,1792,1792,1536,1280,1280,1024,512,256,512,2304,3840,3840,3584,2560,1792,1024,1024,1024,1280,1280,1280,1280,1280,1280,1024,1024,512,256,0,0,0,0,0,512,768.0001,768.0001,512,256,256,256,0,0,0,0,0,256,256,256,512,1280,1536,1536,1536,1536,1536,1536,1280,1024,768.0001,256,0,256,768.0001,3328,5376,5376,5376,5376,5376,5376,5376,5376,5376,5376,5376,5376,5376,5376,5376,5376,5376,5376,5376,5376,5376,5376,5376,5376,5376
0,0,0,256,512,1024,1024,1280,1280,1024,1024,512,256,0,0,0,0,0,0,0,0,0,0,0,0,0,0,0,0,0,0,0,0,0,0,0,0,256,256,256,256,256,256,256,256,256,256,256,256,256,256,256,256,256,256,256,256,256,256,256,256,256,256,256,256,256,256,256,256,256,256,256,256,256,256,256,256,256,256,256,256,256,256,256,256,256,256,256,256,256,256,256,256,256,256,256,256,256,256,256,256,256,256,256,256,256,256,256,256,256,256,256,256,256,256,256,256,256,256,256,256,256,256,256,256,256,256,256,256,256,256,256,256,256,256,256,256,256,256,256,256,256,256,256,0,0,0,0,0,0,0,512,2560,4096,4096,4352,4352,4352,4352,4352,4352,4352,4352,4352,4352,4352,4352,4864,5376,5376,5376,5376,5376,5376,5376,5376,5376,5376,5376,5376,5376,5376,5376,5376,5376,5376,5376,5376,5376,5376,5376,5376,5376,5376,5376,5376,5376,5376,5376,5376,5376,5376,5376,5376,5376,5376,5376,5376,5376,5376,5376,5376,5376,5376,5376,5376,5376,5376,5376,5376,5376,5376,5376,5632,5888,6144,6144,6144,6144,6144,6144,6144,6144,6144,6144,6144,6144,6144,6144,6144,6144,6144,6144,6144,6144,6144,6144,6400,6912,6912,6912,6912,6912,6912,6912,6912,6912,6912,6912,6912,6912,6912,6912,6912,6912,6912,6912,6912,6912,6912,6912,6912,6912,6912,6912,6912,6912,6912,6912,6912,6912,6912,6912,6912,6912,6912,6912,6912,6912,6912,6912,6912,6912,6912,6912,6912,6912,6912,6912,6912,6912,6912,6912,6912,6912,6912,6912,6912,6912,6912,6912,6912,6912,6912,6912,6912,6912,6912,6912,6912,6912,6912,6912,6912,6912,6912,6912,6912,6912,6912,6912,6912,6912,6912,6912,6912,6912,6912,6912,6912,6912,6912,6912,6912,6912,6912,6912,6912,6912,6912,6912,6912,6912,6912,6912,6912,6912,6912,6912,6912,6912,6912,6912,6912,6912,6912,6912,6912,6912,6912,6912,6912,6912,6912,6912,6912,6912,6912,6912,6912,6912,6912,6912,6912,7168,7168,7168,5888,3072,2304,3584,4352,4352,4864,4864,4864,4864,4864,4864,4352,4096,4096,4096,4096,4096,4096,4096,4096,4096,4096,4096,4096,4096,4096,4096,3328,1792,1536,1792,2560,3584,4352,4864,4864,4096,4096,4096,4096,4096,4096,4096,4096,4096,4096,4096,4096,4096,4096,4096,4096,4096,4096,4096,4096,4096,4096,4096,4096,4096,4096,4096,4096,4096,4096,4096,3584,3072,2560,3072,3072,3328,3584,4096,4096,3584,3584,3584,3584,3584,3584,3584,3584,3584,3584,3584,3584,3584,3584,3584,3584,3584,3584,3584,3584,3584,3584,3584,3584,3584,3584,3584,3584,3584,3584,3584,3584,3584,3584,4096,3328,1024,512,1024,1280,1792,2048,2048,2048,2048,2048,2048,2048,2048,2048,2048,2048,2048,2048,2048,1792,1536,1536,1792,1792,1536,1280,768.0001,512,256,256,256,256,256,256,256,0,0,0,0,0,0,256,1536,2560,3072,1792,0,0,256,1024,1280,1792,1792,1536,1280,1280,1024,512,256,512,2304,3840,3840,3584,2560,1792,1024,1024,1024,1280,1280,1280,1280,1280,1280,1280,1024,1024,512,256,0,0,0,0,0,256,256,256,256,256,0,0,0,0,0,0,256,256,256,256,1024,1280,1280,1280,1280,1280,1280,1280,1280,1024,256,0,0,512,3328,5120,5120,4864,4864,4864,4864,4864,4864,4864,4864,4864,4864,4864,4864,4864,4864,4864,4864,4864,4864,4864,4864,4864,4864,4864
512,0,0,256,512,512,768.0001,768.0001,768.0001,768.0001,512,512,256,0,0,0,0,0,0,0,0,0,0,0,0,0,0,0,0,0,0,0,0,0,0,0,0,256,256,256,256,256,256,256,256,256,256,256,256,0,0,0,0,0,0,0,0,0,0,0,0,0,0,0,0,0,0,0,0,0,0,0,0,0,0,0,0,0,0,0,0,0,0,0,0,0,0,0,0,0,0,0,0,0,0,0,0,0,0,0,0,0,0,0,0,0,0,0,0,0,0,256,256,256,256,256,256,256,256,256,256,256,256,256,256,256,256,256,256,256,256,256,256,256,256,256,256,256,256,256,256,256,256,256,0,0,0,0,0,0,256,1536,3840,5376,4864,4352,3072,2560,2560,2560,2560,3584,4864,4864,3584,3072,3072,3584,5888,7424,8448,8192,6912,6912,8192,10240,12288,13312,13056,12800,12800,13056,13056,13056,13312,13824,14336,14592,14592,14336,13824,13312,13312,13312,13824,13824,14336,14336,14336,13824,13824,13824,13824,13824,13824,13824,14336,14592,14848,15104,14848,14848,14848,14848,14848,14848,15104,15104,15104,15104,15104,15104,15104,15360,16128,16384,16640,16640,16896,16640,16640,16640,16640,16640,16896,16896,16896,17152,17152,17152,16896,16896,16640,16640,16384,16640,16896,17152,17664,17664,17920,17920,17664,17664,17664,17664,17920,17920,18176,18176,17920,17920,18176,18176,18432,18432,18688,18688,18688,18688,18432,18432,18432,17664,16384,16640,18176,18944,18944,19200,19456,19456,19200,18944,18688,18688,18688,18944,18944,19200,19200,19200,19200,19200,19456,19456,18944,18688,18432,18688,18944,19200,19712,19712,19712,19712,19712,19712,19456,19200,19200,19200,19200,18944,18688,18432,18432,18432,18688,18688,18944,19200,19200,19200,19456,19456,19712,19456,19200,18944,18944,19200,19456,19456,19200,18432,16896,16896,18432,19200,19456,19456,19456,19712,20224,20224,19712,19456,19456,19456,19456,19456,19200,19200,19712,19968,20224,20224,19968,19968,20224,20480,20480,20736,20736,20992,20992,20736,20224,19712,19456,19456,19968,19968,19968,19968,19456,19200,19200,19200,19456,19456,19200,19456,19712,19712,19968,19200,17408,16896,17664,18176,18176,18176,17920,17920,17920,17920,17920,17664,17408,17152,16896,16896,16896,17152,17152,16896,16896,16896,16896,16896,16896,16640,16640,15104,12032,11008,11776,13824,15872,17152,17664,17664,17152,16896,16896,16128,14592,14592,15872,16384,16128,16128,16384,16384,16128,16384,16640,16896,16896,16896,16896,16640,16128,16128,16128,16384,17920,17408,16640,16640,16896,16896,16896,15872,13824,13312,13824,15104,15360,15616,15616,15360,14848,14592,14592,14592,14592,14848,14848,14592,13312,13824,15360,16128,15872,15616,15104,14336,13056,13056,14848,15616,15616,15872,16128,16128,15872,15616,14848,13056,10496,10496,13056,14848,15104,15616,16384,13312,6912,2304,1024,512,1024,1280,1536,1536,1280,1280,1280,1280,1280,1536,1536,1536,1536,1536,1536,1280,1024,1024,1280,1280,1024,1024,768.0001,512,256,0,0,0,0,0,0,0,0,0,0,0,0,256,1024,1536,2048,1280,0,0,256,512,768.0001,1024,1024,1024,1024,768.0001,512,512,256,256,1536,2304,2304,2048,1536,1024,768.0001,512,768.0001,768.0001,768.0001,768.0001,768.0001,768.0001,768.0001,1024,768.0001,768.0001,256,256,0,0,0,0,0,0,0,0,0,0,0,0,0,0,0,0,0,0,0,0,512,768.0001,768.0001,768.0001,768.0001,768.0001,768.0001,1024,1024,768.0001,256,0,0,256,2048,3072,3072,2560,2560,2560,2560,2560,2560,2560,2560,2560,2560,2560,2560,2560,2560,2560,2560,2560,2560,2560,2560,2560,2560,2560
0,0,0,256,512,1024,1024,1280,1280,1280,1280,1024,512,256,0,0,0,0,0,0,0,0,0,0,0,0,0,0,0,0,0,0,0,0,0,256,256,512,512,512,256,256,256,256,256,256,256,256,256,256,256,256,256,256,256,256,256,256,256,256,256,256,256,256,256,256,256,256,256,256,256,256,256,256,256,256,256,256,256,256,256,256,256,256,256,256,256,256,256,256,256,256,256,256,256,256,256,256,256,256,256,256,256,256,256,256,256,256,256,256,256,256,256,256,256,256,256,256,256,256,256,256,256,256,256,256,256,256,256,256,256,256,256,256,256,256,256,256,256,256,256,256,256,256,0,0,0,0,0,0,512,1536,3328,4096,4352,4352,4352,4352,4352,4352,4352,4352,4352,4352,4352,4352,4352,4352,4352,4352,4352,4352,4352,4352,4352,4352,4352,4352,4352,4352,4352,4352,4352,4352,4352,4352,4352,4352,4352,4352,4352,4352,4352,4352,4352,4352,4352,4352,4352,4352,4352,4352,4352,4352,4352,4352,4352,4352,4352,4352,4352,4352,4352,4352,4352,4352,4352,4352,4352,4352,4352,4352,4352,4352,4352,4352,4352,4352,4352,4352,4352,4352,4352,4352,4352,4352,4352,4352,4352,4352,4352,4352,4352,4352,4352,4352,4352,4352,4352,4352,4352,4352,4352,4352,4352,4352,4352,4352,4352,4352,4352,4352,4352,4352,4352,4352,4352,4352,4352,4352,4352,4352,4352,4352,4352,4352,4352,4352,4352,4352,4352,4352,4352,4352,4352,4352,4352,4352,4352,4352,4352,4352,4352,4352,4352,4352,4352,4352,4352,4352,4352,4352,4352,4352,4352,4352,4352,4352,4352,4352,4352,4352,4352,4352,4352,4352,4352,4352,4352,4352,4352,4352,4352,4352,4352,4352,4352,4352,4352,4352,4352,4352,4352,4352,4352,4352,4352,4352,4352,4352,4352,4352,4352,4352,4352,4352,4352,4352,4352,4352,4352,4352,4352,4352,4352,4352,4352,4352,4352,4352,4352,4352,4352,4352,4352,4352,4352,4352,4352,4352,4352,4352,4352,4352,4352,4352,4352,4352,4352,4352,4352,4352,4352,4352,4352,4352,4352,3840,1792,1280,1280,1280,1536,1792,1792,1792,1792,1792,1792,1792,1792,1792,1792,1792,1792,1792,1792,1792,1792,1792,1792,1792,1792,1792,1792,1792,1792,1792,1792,1792,1792,1792,1792,1792,1792,1792,1792,1792,1792,1792,1792,1792,1792,1792,1792,1792,1792,1792,1792,1792,1792,1792,1792,1792,1792,1792,1792,1792,1792,1792,1792,1792,1792,1792,1792,1792,1792,1792,1792,1792,1792,1792,1792,1792,1792,1792,1792,1792,1792,1792,1792,1792,1792,1792,1792,1792,1792,1792,1792,1792,1792,1792,1792,1792,1792,1792,1792,1792,1792,1792,1792,1792,1792,1792,1792,1792,1792,1792,1792,1792,1792,1792,1792,1792,1792,1792,1792,1792,1792,1792,1792,1792,1792,1792,1792,1792,1792,1792,1792,1792,1792,1792,1792,1792,1792,1792,1792,1280,256,256,256,256,256,256,256,256,256,256,256,256,256,256,256,512,1792,1792,512,256,512,1024,1536,1792,1792,1792,2048,2048,1792,1280,768.0001,1024,2304,3584,4352,3328,768.0001,256,512,1024,1024,1280,1280,1280,1280,1280,1280,1280,1280,1280,1280,1024,768.0001,512,512,256,0,0,0,0,0,0,0,0,0,0,0,0,0,0,0,256,768.0001,1280,1280,1280,1280,1280,1280,1280,1280,768.0001,256,256,768.0001,2048,4352,5632,5376,5120,5120,5120,5120,5120,5120,5120,5120,5120,5120,5120,5120,5120,5120,5120,5120,5120,5120,5120,5120,5120,5120,3328
0,0,0,256,512,1024,1024,1280,1280,1280,1280,1024,512,256,0,0,0,0,0,0,0,0,0,0,0,0,0,0,0,0,0,0,0,0,0,256,256,512,512,512,256,256,256,256,256,256,256,256,256,256,256,256,256,256,256,256,256,256,256,256,256,256,256,256,256,256,256,256,256,256,256,256,256,256,256,256,256,256,256,256,256,256,256,256,256,256,256,256,256,256,256,256,256,256,256,256,256,256,256,256,256,256,256,256,256,256,256,256,256,256,256,256,256,256,256,256,256,256,256,256,256,256,256,256,256,256,256,256,256,256,256,256,256,256,256,256,256,256,256,256,256,256,256,256,0,0,0,0,0,0,512,1536,3328,4096,4352,4352,4352,4352,4352,4352,4352,4352,4352,4352,4352,4352,4352,4352,4352,4352,4352,4352,4352,4352,4352,4352,4352,4352,4352,4352,4352,4352,4352,4352,4352,4352,4352,4352,4352,4352,4352,4352,4352,4352,4352,4352,4352,4352,4352,4352,4352,4352,4352,4352,4352,4352,4352,4352,4352,4352,4352,4352,4352,4352,4352,4352,4352,4352,4352,4352,4352,4352,4352,4352,4352,4352,4352,4352,4352,4352,4352,4352,4352,4352,4352,4352,4352,4352,4352,4352,4352,4352,4352,4352,4352,4352,4352,4352,4352,4352,4352,4352,4352,4352,4352,4352,4352,4352,4352,4352,4352,4352,4352,4352,4352,4352,4352,4352,4352,4352,4352,4352,4352,4352,4352,4352,4352,4352,4352,4352,4352,4352,4352,4352,4352,4352,4352,4352,4352,4352,4352,4352,4352,4352,4352,4352,4352,4352,4352,4352,4352,4352,4352,4352,4352,4352,4352,4352,4352,4352,4352,4352,4352,4352,4352,4352,4352,4352,4352,4352,4352,4352,4352,4352,4352,4352,4352,4352,4352,4352,4352,4352,4352,4352,4352,4352,4352,4352,4352,4352,4352,4352,4352,4352,4352,4352,4352,4352,4352,4352,4352,4352,4352,4352,4352,4352,4352,4352,4352,4352,4352,4352,4352,4352,4352,4352,4352,4352,4352,4352,4352,4352,4352,4352,4352,4352,4352,4352,4352,4352,4352,4352,4352,4352,4352,4352,4352,3840,1792,1280,1280,1280,1536,1792,1792,1792,1792,1792,1792,1792,1792,1792,1792,1792,1792,1792,1792,1792,1792,1792,1792,1792,1792,1792,1792,1792,1792,1792,1792,1792,1792,1792,1792,1792,1792,1792,1792,1792,1792,1792,1792,1792,1792,1792,1792,1792,1792,1792,1792,1792,1792,1792,1792,1792,1792,1792,1792,1792,1792,1792,1792,1792,1792,1792,1792,1792,1792,1792,1792,1792,1792,1792,1792,1792,1792,1792,1792,1792,1792,1792,1792,1792,1792,1792,1792,1792,1792,1792,1792,1792,1792,1792,1792,1792,1792,1792,1792,1792,1792,1792,1792,1792,1792,1792,1792,1792,1792,1792,1792,1792,1792,1792,1792,1792,1792,1792,1792,1792,1792,1792,1792,1792,1792,1792,1792,1792,1792,1792,1792,1792,1792,1792,1792,1792,1792,1792,1792,1280,256,256,256,256,256,256,256,256,256,256,256,256,256,256,256,512,1536,1536,512,256,768.0001,1024,1536,1792,1792,1792,2048,2048,1792,1280,768.0001,1024,2048,3584,4096,3328,768.0001,256,512,1024,1024,1280,1280,1280,1280,1280,1280,1280,1280,1280,1280,1024,768.0001,512,512,256,0,0,0,0,0,0,0,0,0,0,0,0,0,0,0,256,768.0001,1280,1280,1280,1280,1280,1280,1280,1280,768.0001,256,256,768.0001,2048,4352,5632,5376,5120,5120,5120,5120,5120,5120,5120,5120,5120,5120,5120,5120,5120,5120,5120,5120,5120,5120,5120,5120,5120,5120,3328
0,0,0,256,512,1024,1024,1280,1280,1280,1280,1024,512,256,0,0,0,0,0,0,0,0,0,0,0,0,0,0,0,0,0,0,0,0,0,256,256,512,512,512,256,256,256,256,256,256,256,256,256,256,256,256,256,256,256,256,256,256,256,256,256,256,256,256,256,256,256,256,256,256,256,256,256,256,256,256,256,256,256,256,256,256,256,256,256,256,256,256,256,256,256,256,256,256,256,256,256,256,256,256,256,256,256,256,256,256,256,256,256,256,256,256,256,256,256,256,256,256,256,256,256,256,256,256,256,256,256,256,256,256,256,256,256,256,256,256,256,256,256,256,256,256,256,256,0,0,0,0,0,0,512,1536,3328,4096,4352,4352,4352,4352,4352,4352,4352,4352,4352,4352,4352,4352,4352,4352,4352,4352,4352,4352,4352,4352,4352,4352,4352,4352,4352,4352,4352,4352,4352,4352,4352,4352,4352,4352,4352,4352,4352,4352,4352,4352,4352,4352,4352,4352,4352,4352,4352,4352,4352,4352,4352,4352,4352,4352,4352,4352,4352,4352,4352,4352,4352,4352,4352,4352,4352,4352,4352,4352,4352,4352,4352,4352,4352,4352,4352,4352,4352,4352,4352,4352,4352,4352,4352,4352,4352,4352,4352,4352,4352,4352,4352,4352,4352,4352,4352,4352,4352,4352,4352,4352,4352,4352,4352,4352,4352,4352,4352,4352,4352,4352,4352,4352,4352,4352,4352,4352,4352,4352,4352,4352,4352,4352,4352,4352,4352,4352,4352,4352,4352,4352,4352,4352,4352,4352,4352,4352,4352,4352,4352,4352,4352,4352,4352,4352,4352,4352,4352,4352,4352,4352,4352,4352,4352,4352,4352,4352,4352,4352,4352,4352,4352,4352,4352,4352,4352,4352,4352,4352,4352,4352,4352,4352,4352,4352,4352,4352,4352,4352,4352,4352,4352,4352,4352,4352,4352,4352,4352,4352,4352,4352,4352,4352,4352,4352,4352,4352,4352,4352,4352,4352,4352,4352,4352,4352,4352,4352,4352,4352,4352,4352,4352,4352,4352,4352,4352,4352,4352,4352,4352,4352,4352,4352,4352,4352,4352,4352,4352,4352,4352,4352,4352,4352,4352,3840,1792,1280,1280,1280,1536,1792,1792,1792,1792,1792,1792,1792,1792,1792,1792,1792,1792,1792,1792,1792,1792,1792,1792,1792,1792,1792,1792,1792,1792,1792,1792,1792,1792,1792,1792,1792,1792,1792,1792,1792,1792,1792,1792,1792,1792,1792,1792,1792,1792,1792,1792,1792,1792,1792,1792,1792,1792,1792,1792,1792,2048,2048,2048,2048,2048,2048,2048,2048,1792,1792,1792,1792,1792,1792,1792,1792,1792,1792,1792,1792,1792,1792,1792,1792,1792,1792,1792,1792,1792,1792,1792,1792,1792,1792,1792,1792,1792,1792,1792,1792,1792,1792,1792,1792,1792,1792,1792,1792,1792,1792,1792,1792,1792,1792,1792,1792,1792,1792,1792,1792,1792,1792,1792,1792,1792,1792,1792,1792,1792,1792,1792,1792,1792,1792,1792,1792,1792,1792,1792,1280,256,256,256,256,256,256,256,256,256,256,256,256,256,256,256,256,1024,1024,256,256,1024,1280,1536,1792,1792,1792,2048,2048,1792,1280,768.0001,1024,1792,3072,3840,3072,768.0001,256,512,1024,1024,1280,1280,1280,1280,1280,1280,1280,1280,1280,1280,1024,768.0001,512,512,256,0,0,0,0,0,0,0,0,0,0,0,0,0,0,0,256,768.0001,1280,1280,1280,1280,1280,1280,1280,1280,768.0001,256,256,768.0001,2048,4352,5632,5376,5120,5120,5120,5120,5120,5120,5120,5120,5120,5120,5120,5120,5120,5120,5120,5120,5120,5120,5120,5120,5120,5120,3328
0,0,0,256,512,1024,1024,1280,1280,1280,1280,1024,512,256,0,0,0,0,0,0,0,0,0,0,0,0,0,0,0,0,0,0,0,0,0,256,256,512,512,512,256,256,256,256,256,256,256,256,256,256,256,256,256,256,256,256,256,256,256,256,256,256,256,256,256,256,256,256,256,256,256,256,256,256,256,256,256,256,256,256,256,256,256,256,256,256,256,256,256,256,256,256,256,256,256,256,256,256,256,256,256,256,256,256,256,256,256,256,256,256,256,256,256,256,256,256,256,256,256,256,256,256,256,256,256,256,256,256,256,256,256,256,256,256,256,256,256,256,256,256,256,256,256,256,0,0,0,0,0,0,512,1536,3328,4096,4352,4352,4352,4352,4352,4352,4352,4352,4352,4352,4352,4352,4352,4352,4352,4352,4352,4352,4352,4352,4352,4352,4352,4352,4352,4352,4352,4352,4352,4352,4352,4352,4352,4352,4352,4352,4352,4352,4352,4352,4352,4352,4352,4352,4352,4352,4352,4352,4352,4352,4352,4352,4352,4352,4352,4352,4352,4352,4352,4352,4352,4352,4352,4352,4352,4352,4352,4352,4352,4352,4352,4352,4352,4352,4352,4352,4352,4352,4352,4352,4352,4352,4352,4352,4352,4352,4352,4352,4352,4352,4352,4352,4352,4352,4352,4352,4352,4352,4352,4352,4352,4352,4352,4352,4352,4352,4352,4352,4352,4352,4352,4352,4352,4352,4352,4352,4352,4352,4352,4352,4352,4352,4352,4352,4352,4352,4352,4352,4352,4352,4352,4352,4352,4352,4352,4352,4352,4352,4352,4352,4352,4352,4352,4352,4352,4352,4352,4352,4352,4352,4352,4352,4352,4352,4352,4352,4352,4352,4352,4352,4352,4352,4352,4352,4352,4352,4352,4352,4352,4352,4352,4352,4352,4352,4352,4352,4352,4352,4352,4352,4352,4352,4352,4352,4352,4352,4352,4352,4352,4352,4352,4352,4352,4352,4352,4352,4352,4352,4352,4352,4352,4352,4352,4352,4352,4352,4352,4352,4352,4352,4352,4352,4352,4352,4352,4352,4352,4352,4352,4352,4352,4352,4352,4352,4352,4352,4352,4352,4352,4352,4352,4352,4352,3840,1792,1280,1280,1280,1536,1792,1792,1792,1792,1792,1792,1792,1792,1792,1792,1792,1792,1792,1792,1792,1792,1792,1792,1792,1792,1792,1792,1792,1792,1792,1792,1792,1792,1792,1792,1792,1792,1792,1792,1792,1792,1792,1792,1792,1792,1792,1792,1792,1792,1792,1792,1792,1792,1792,1792,1792,1792,1792,1792,1792,2048,2048,2048,2048,2048,2048,2048,2048,1792,1792,1792,1792,1792,1792,1792,1792,1792,1792,1792,1792,1792,1792,1792,1792,1792,1792,1792,1792,1792,1792,1792,1792,1792,1792,1792,1792,1792,1792,1792,1792,1792,1792,1792,1792,1792,1792,1792,1792,1792,1792,1792,1792,1792,1792,1792,1792,1792,1792,1792,1792,1792,1792,1792,1792,1792,1792,1792,1792,1792,1792,1792,1792,1792,1792,1792,1792,1792,1792,1792,1280,256,256,256,256,256,256,256,256,256,256,256,256,256,256,256,256,768.0001,768.0001,256,256,1024,1280,1536,1536,1792,1792,2048,2048,1792,1280,768.0001,768.0001,1536,2304,3328,2560,512,256,512,1024,1024,1280,1280,1280,1280,1280,1280,1280,1280,1280,1280,1024,768.0001,512,512,256,0,0,0,0,0,0,0,0,0,0,0,0,0,0,0,256,768.0001,1280,1280,1280,1280,1280,1280,1280,1280,768.0001,256,256,768.0001,2048,4352,5632,5376,5120,5120,5120,5120,5120,5120,5120,5120,5120,5120,5120,5120,5120,5120,5376,5376,5376,5376,5376,5120,5120,4864,3072
0,0,0,256,512,1024,1024,1280,1280,1280,1280,1024,512,256,0,0,0,0,0,0,0,0,0,0,0,0,0,0,0,0,0,0,0,0,0,256,256,512,512,512,256,256,256,256,256,256,256,256,256,256,256,256,256,256,256,256,256,256,256,256,256,256,256,256,256,256,256,256,256,256,256,256,256,256,256,256,256,256,256,256,256,256,256,256,256,256,256,256,256,256,256,256,256,256,256,256,256,256,256,256,256,256,256,256,256,256,256,256,256,256,256,256,256,256,256,256,256,256,256,256,256,256,256,256,256,256,256,256,256,256,256,256,256,256,256,256,256,256,256,256,256,256,256,256,0,0,0,0,0,0,512,1536,3328,4096,4352,4352,4352,4352,4352,4352,4352,4352,4352,4352,4352,4352,4352,4352,4352,4352,4352,4352,4352,4352,4352,4352,4352,4352,4352,4352,4352,4352,4352,4352,4352,4352,4352,4352,4352,4352,4352,4352,4352,4352,4352,4352,4352,4352,4352,4352,4352,4352,4352,4352,4352,4352,4352,4352,4352,4352,4352,4352,4352,4352,4352,4352,4352,4352,4352,4352,4352,4352,4352,4352,4352,4352,4352,4352,4352,4352,4352,4352,4352,4352,4352,4352,4352,4352,4352,4352,4352,4352,4352,4352,4352,4352,4352,4352,4352,4352,4352,4352,4352,4352,4352,4352,4352,4352,4352,4352,4352,4352,4352,4352,4352,4352,4352,4352,4352,4352,4352,4352,4352,4352,4352,4352,4352,4352,4352,4352,4352,4352,4352,4352,4352,4352,4352,4352,4352,4352,4352,4352,4352,4352,4352,4352,4352,4352,4352,4352,4352,4352,4352,4352,4352,4352,4352,4352,4352,4352,4352,4352,4352,4352,4352,4352,4352,4352,4352,4352,4352,4352,4352,4352,4352,4352,4352,4352,4352,4352,4352,4352,4352,4352,4352,4352,4352,4352,4352,4352,4352,4352,4352,4352,4352,4352,4352,4352,4352,4352,4352,4352,4352,4352,4352,4352,4352,4352,4352,4352,4352,4352,4352,4352,4352,4352,4352,4352,4352,4352,4352,4352,4352,4352,4352,4352,4352,4352,4352,4352,4352,4352,4352,4352,4352,4352,4352,3840,1792,1280,1280,1280,1536,1792,1792,1792,1792,1792,1792,1792,1792,1792,1792,1792,1792,1792,1792,1792,1792,1792,1792,1792,1792,1792,1792,1792,1792,1792,1792,1792,1792,1792,1792,1792,1792,1792,1792,1792,1792,1792,1792,1792,1792,1792,1792,1792,1792,1792,1792,1792,1792,1792,1792,1792,1792,1792,1792,1792,1792,1792,1792,1792,1792,1792,1792,1792,1792,1792,1792,1792,1792,1792,1792,1792,1792,1792,1792,1792,1792,1792,1792,1792,1792,1792,1792,1792,1792,1792,1792,1792,1792,1792,1792,1792,1792,1792,1792,1792,1792,1792,1792,1792,1792,1792,1792,1792,1792,1792,1792,1792,1792,1792,1792,1792,1792,1792,1792,1792,1792,1792,1792,1792,1792,1792,1792,1792,1792,1792,1792,1792,1792,1792,1792,1792,1792,1792,1792,1280,256,256,256,256,256,256,256,256,256,256,256,256,256,256,256,256,512,256,256,256,1024,1280,1280,1280,1536,1792,2048,2048,1792,1280,768.0001,768.0001,1024,1792,2560,1792,256,256,256,1024,1024,1280,1280,1280,1280,1280,1280,1280,1280,1280,1280,1024,768.0001,512,512,256,0,0,0,0,0,0,0,0,0,0,0,0,0,0,0,256,768.0001,1280,1280,1280,1280,1280,1280,1280,1280,768.0001,256,256,768.0001,2048,4352,5632,5376,5120,5120,5120,5120,5120,5120,5120,5120,5120,5120,5120,5120,5120,5120,5376,5888,5888,5632,5376,5120,4352,4352,2560
0,0,0,256,512,1024,1024,1280,1280,1280,1280,1024,512,256,0,0,0,0,0,0,0,0,0,0,0,0,0,0,0,0,0,0,0,0,0,256,256,512,512,512,256,256,256,256,256,256,256,256,256,256,256,256,256,256,256,256,256,256,256,256,256,256,256,256,256,256,256,256,256,256,256,256,256,256,256,256,256,256,256,256,256,256,256,256,256,256,256,256,256,256,256,256,256,256,256,256,256,256,256,256,256,256,256,256,256,256,256,256,256,256,256,256,256,256,256,256,256,256,256,256,256,256,256,256,256,256,256,256,256,256,256,256,256,256,256,256,256,256,256,256,256,256,256,256,0,0,0,0,0,0,512,1536,3328,4096,4352,4352,4352,4352,4352,4352,4352,4352,4352,4352,4352,4352,4352,4352,4352,4352,4352,4352,4352,4352,4352,4352,4352,4352,4352,4352,4352,4352,4352,4352,4352,4352,4352,4352,4352,4352,4352,4352,4352,4352,4352,4352,4352,4352,4352,4352,4352,4352,4352,4352,4352,4352,4352,4352,4352,4352,4352,4352,4352,4352,4352,4352,4352,4352,4352,4352,4352,4352,4352,4352,4352,4352,4352,4352,4352,4352,4352,4352,4352,4352,4352,4352,4352,4352,4352,4352,4352,4352,4352,4352,4352,4352,4352,4352,4352,4352,4352,4352,4352,4352,4352,4352,4352,4352,4352,4352,4352,4352,4352,4352,4352,4352,4352,4352,4352,4352,4352,4352,4352,4352,4352,4352,4352,4352,4352,4352,4352,4352,4352,4352,4352,4352,4352,4352,4352,4352,4352,4352,4352,4352,4352,4352,4352,4352,4352,4352,4352,4352,4352,4352,4352,4352,4352,4352,4352,4352,4352,4352,4352,4352,4352,4352,4352,4352,4352,4352,4352,4352,4352,4352,4352,4352,4352,4352,4352,4352,4352,4352,4352,4352,4352,4352,4352,4352,4352,4352,4352,4352,4352,4352,4352,4352,4352,4352,4352,4352,4352,4352,4352,4352,4352,4352,4352,4352,4352,4352,4352,4352,4352,4352,4352,4352,4352,4352,4352,4352,4352,4352,4352,4352,4352,4352,4352,4352,4352,4352,4352,4352,4352,4352,4352,4352,4352,3840,1792,1280,1280,1280,1536,1792,1792,1792,1792,1792,1792,1792,1792,1792,1792,1792,1792,1792,1792,1792,1792,1792,1792,1792,1792,1792,1792,1792,1792,1792,1792,1792,1792,1792,1792,1792,1792,1792,1792,1792,1792,1792,1792,1792,1792,1792,1792,1792,1792,1792,1792,1792,1792,1792,1792,1792,1792,1792,1792,1536,1536,1536,1536,1536,1536,1536,1536,1536,1536,1792,1792,1792,1792,1792,1792,1792,1792,1792,1792,1792,1792,1792,1792,1792,1792,1792,1792,1792,1792,1792,1792,1792,1792,1792,1792,1792,1792,1792,1792,1792,1792,1792,1792,1792,1792,1792,1792,1792,1792,1792,1792,1792,1792,1792,1792,1792,1792,1792,1792,1792,1792,1792,1792,1792,1792,1792,1792,1792,1792,1792,1792,1792,1792,1792,1792,1792,1792,1792,1792,1280,256,256,256,256,256,256,256,256,256,256,256,256,256,256,256,256,256,256,0,256,1024,1280,1280,1280,1536,1792,2048,2048,1792,1280,768.0001,512,1024,1280,1792,1280,256,0,512,1024,1024,1280,1280,1280,1280,1280,1280,1280,1280,1280,1280,1024,768.0001,512,512,256,256,0,0,0,0,0,0,0,0,0,0,0,0,0,0,256,768.0001,1280,1280,1280,1280,1280,1280,1280,1280,768.0001,256,256,768.0001,2048,4352,5632,5376,5120,5120,5120,5120,5120,5120,5120,5120,5120,5120,5120,5120,5120,5120,5632,6144,6144,5888,5376,4864,4352,3840,2048
0,0,0,256,512,1024,1024,1280,1280,1280,1280,1024,512,256,0,0,0,0,0,0,0,0,0,0,0,0,0,0,0,0,0,0,0,0,0,256,256,512,512,512,256,256,256,256,256,256,256,256,256,256,256,256,256,256,256,256,256,256,256,256,256,256,256,256,256,256,256,256,256,256,256,256,256,256,256,256,256,256,256,256,256,256,256,256,256,256,256,256,256,256,256,256,256,256,256,256,256,256,256,256,256,256,256,256,256,256,256,256,256,256,256,256,256,256,256,256,256,256,256,256,256,256,256,256,256,256,256,256,256,256,256,256,256,256,256,256,256,256,256,256,256,256,256,256,0,0,0,0,0,0,512,1536,3328,4096,4352,4352,4352,4352,4352,4352,4352,4352,4352,4352,4352,4352,4352,4352,4352,4352,4352,4352,4352,4352,4352,4352,4352,4352,4352,4352,4352,4352,4352,4352,4352,4352,4352,4352,4352,4352,4352,4352,4352,4352,4352,4352,4352,4352,4352,4352,4352,4352,4352,4352,4352,4352,4352,4352,4352,4352,4352,4352,4352,4352,4352,4352,4352,4352,4352,4352,4352,4352,4352,4352,4352,4352,4352,4352,4352,4352,4352,4352,4352,4352,4352,4352,4352,4352,4352,4352,4352,4352,4352,4352,4352,4352,4352,4352,4352,4352,4352,4352,4352,4352,4352,4352,4352,4352,4352,4352,4352,4352,4352,4352,4352,4352,4352,4352,4352,4352,4352,4352,4352,4352,4352,4352,4352,4352,4352,4352,4352,4352,4352,4352,4352,4352,4352,4352,4352,4352,4352,4352,4352,4352,4352,4352,4352,4352,4352,4352,4352,4352,4352,4352,4352,4352,4352,4352,4352,4352,4352,4352,4352,4352,4352,4352,4352,4352,4352,4352,4352,4352,4352,4352,4352,4352,4352,4352,4352,4352,4352,4352,4352,4352,4352,4352,4352,4352,4352,4352,4352,4352,4352,4352,4352,4352,4352,4352,4352,4352,4352,4352,4352,4352,4352,4352,4352,4352,4352,4352,4352,4352,4352,4352,4352,4352,4352,4352,4352,4352,4352,4352,4352,4352,4352,4352,4352,4352,4352,4352,4352,4352,4352,4352,4352,4352,4352,3840,1792,1280,1280,1280,1536,1792,1792,1792,1792,1792,1792,1792,1792,1792,1792,1792,1792,1792,1792,1792,1792,1792,1792,1792,1792,1792,1792,1792,1792,1792,1792,1792,1792,1792,1792,1792,1792,1792,1792,1792,1792,1792,1792,1792,1792,1792,1792,1792,1792,1792,1792,1792,1792,1792,1792,1792,1792,1792,1792,1536,1024,1024,1024,1024,1024,1024,1024,1024,1536,1792,1792,1792,1792,1792,1792,1792,1792,1792,1792,1792,1792,1792,1792,1792,1792,1792,1792,1792,1792,1792,1792,1792,1792,1792,1792,1792,1792,1792,1792,1792,1792,1792,1792,1792,1792,1792,1792,1792,1792,1792,1792,1792,1792,1792,1792,1792,1792,1792,1792,1792,1792,1792,1792,1792,1792,1792,1792,1792,1792,1792,1792,1792,1792,1792,1792,1792,1792,1792,1792,1280,256,256,256,256,256,256,256,256,256,256,256,256,256,256,256,256,0,0,0,256,1024,1536,1280,1280,1536,1792,2048,2048,1792,1280,768.0001,512,512,1024,1536,1024,256,0,512,1024,1024,1280,1280,1280,1280,1280,1280,1280,1280,1280,1280,1024,768.0001,512,512,256,256,256,256,256,256,256,256,256,0,0,0,0,0,0,0,256,768.0001,1280,1280,1280,1280,1280,1280,1280,1280,768.0001,256,256,768.0001,2048,4352,5632,5376,5120,5120,5120,5120,5120,5120,5120,5120,5120,5120,5120,5120,5120,5120,5632,6400,6400,5888,5376,4864,4096,3584,2048
0,0,256,256,768.0001,1024,1024,1280,1280,1280,1280,1024,512,256,0,0,0,0,0,0,0,0,0,0,0,0,0,0,0,0,0,0,0,0,0,256,256,512,512,512,256,256,256,256,256,256,256,256,256,256,256,256,256,256,256,256,256,256,256,256,256,256,256,256,256,256,256,256,256,256,256,256,256,256,256,256,256,256,256,256,256,256,256,256,256,256,256,256,256,256,256,256,256,256,256,256,256,256,256,256,256,256,256,256,256,256,256,256,256,256,256,256,256,256,256,256,256,256,256,256,256,256,256,256,256,256,256,256,256,256,256,256,256,256,256,256,256,256,256,256,256,256,256,256,0,0,0,0,0,0,512,1792,3584,4352,4352,4352,4352,4352,4352,4352,4352,4352,4352,4352,4352,4352,4352,4352,4352,4352,4352,4352,4352,4352,4352,4352,4352,4352,4352,4352,4352,4352,4352,4352,4352,4352,4352,4352,4352,4352,4352,4352,4352,4352,4352,4352,4352,4352,4352,4352,4352,4352,4352,4352,4352,4352,4352,4352,4352,4352,4352,4352,4352,4352,4352,4352,4352,4352,4352,4352,4352,4352,4352,4352,4352,4352,4352,4352,4352,4352,4352,4352,4352,4352,4352,4352,4352,4352,4352,4352,4352,4352,4352,4352,4352,4352,4352,4352,4352,4352,4352,4352,4352,4352,4352,4352,4352,4352,4352,4352,4352,4352,4352,4352,4352,4352,4352,4352,4352,4352,4352,4352,4352,4352,4352,4352,4352,4352,4352,4352,4352,4352,4352,4352,4352,4352,4352,4352,4352,4352,4352,4352,4352,4352,4352,4352,4352,4352,4352,4352,4352,4352,4352,4352,4352,4352,4352,4352,4352,4352,4352,4352,4352,4352,4352,4352,4352,4352,4352,4352,4352,4352,4352,4352,4352,4352,4352,4352,4352,4352,4352,4352,4352,4352,4352,4352,4352,4352,4352,4352,4352,4352,4352,4352,4352,4352,4352,4352,4352,4352,4352,4352,4352,4352,4352,4352,4352,4352,4352,4352,4352,4352,4352,4352,4352,4352,4352,4352,4352,4352,4352,4352,4352,4352,4352,4352,4352,4352,4352,4352,4352,4352,4352,4352,4352,4352,4352,3840,1792,1280,1280,1280,1536,1792,1792,1792,1792,1792,1792,1792,1792,1792,1792,1792,1792,1792,1792,1792,1792,1792,1792,1792,1792,1792,1792,1792,1792,1792,1792,1792,1792,1792,1792,1792,1792,1792,1792,1792,1792,1792,1792,1792,1792,1792,1792,1792,1792,1792,1792,1792,1792,1792,1792,1792,1792,1792,1792,1536,1024,1024,1024,1024,1024,1024,1024,1024,1536,1792,1792,1792,1792,1792,1792,1792,1792,1792,1792,1792,1792,1792,1792,1792,1792,1792,1792,1792,1792,1792,1792,1792,1792,1792,1792,1792,1792,1792,1792,1792,1792,1792,1792,1792,1792,1792,1792,1792,1792,1792,1792,1792,1792,1792,1792,1792,1792,1792,1792,1792,1792,1792,1792,1792,1792,1792,1792,1792,1792,1792,1792,1792,1792,1792,1792,1792,1792,1792,1792,1280,256,256,256,256,256,256,256,256,256,256,256,256,256,256,256,256,256,256,0,256,768.0001,1280,1280,1280,1536,1792,2048,2048,1792,1280,768.0001,512,768.0001,1024,1536,1024,256,0,256,1024,1024,1280,1280,1280,1280,1280,1280,1280,1280,1280,1280,1024,768.0001,512,512,512,512,512,512,512,512,512,512,256,256,256,256,0,0,0,0,256,768.0001,1280,1280,1280,1280,1280,1280,1024,1024,512,256,256,1024,2560,4096,5376,5376,5120,5120,5120,5120,5120,5120,5120,5120,5120,5120,5120,5120,5120,5120,5632,6144,6144,5888,5376,5120,4352,3840,2048
0,0,256,512,1024,1280,1280,1280,1280,1280,1536,1280,512,256,0,0,0,0,0,0,0,0,0,0,0,0,0,0,0,0,0,0,0,0,0,256,256,512,512,512,256,256,256,256,256,256,256,256,256,256,256,256,256,256,256,256,256,256,256,256,256,256,256,256,256,256,256,256,256,256,256,256,256,256,256,256,256,256,256,256,256,256,256,256,256,256,256,256,256,256,256,256,256,256,256,256,256,256,256,256,256,256,256,256,256,256,256,256,256,256,256,256,256,256,256,256,256,256,256,256,256,256,256,256,256,256,256,256,256,256,256,256,256,256,256,256,256,256,256,256,256,256,256,256,256,0,0,0,0,0,512,1792,3584,4352,4352,4352,4352,4352,4352,4352,4352,4352,4352,4352,4352,4352,4352,4352,4352,4352,4352,4352,4352,4352,4352,4352,4352,4352,4352,4352,4352,4352,4352,4352,4352,4352,4352,4352,4352,4352,4352,4352,4352,4352,4352,4352,4352,4352,4352,4352,4352,4352,4352,4352,4352,4352,4352,4352,4352,4352,4352,4352,4352,4352,4352,4352,4352,4352,4352,4352,4352,4352,4352,4352,4352,4352,4352,4352,4352,4352,4352,4352,4352,4352,4352,4352,4352,4352,4352,4352,4352,4352,4352,4352,4352,4352,4352,4352,4352,4352,4352,4352,4352,4352,4352,4352,4352,4352,4352,4352,4352,4352,4352,4352,4352,4352,4352,4352,4352,4352,4352,4352,4352,4352,4352,4352,4352,4352,4352,4352,4352,4352,4352,4352,4352,4352,4352,4352,4352,4352,4352,4352,4352,4352,4352,4352,4352,4352,4352,4352,4352,4352,4352,4352,4352,4352,4352,4352,4352,4352,4352,4352,4352,4352,4352,4352,4352,4352,4352,4352,4352,4352,4352,4352,4352,4352,4352,4352,4352,4352,4352,4352,4352,4352,4352,4352,4352,4352,4352,4352,4352,4352,4352,4352,4352,4352,4352,4352,4352,4352,4352,4352,4352,4352,4352,4352,4352,4352,4352,4352,4352,4352,4352,4352,4352,4352,4352,4352,4352,4352,4352,4352,4352,4352,4352,4352,4352,4352,4352,4352,4352,4352,4352,4352,4352,4352,4352,3840,1792,1280,1280,1280,1536,1792,1792,1792,1792,1792,1792,1792,1792,1792,1792,1792,1792,1792,1792,1792,1792,1792,1792,1792,1792,1792,1792,1792,1792,1792,1792,1792,1792,1792,1792,1792,1792,1792,1792,1792,1792,1792,1792,1792,1792,1792,1792,1792,1792,1792,1792,1792,1792,1792,1792,1792,1792,1792,1792,1536,1536,1536,1536,1536,1536,1536,1536,1536,1536,1792,1792,1792,1792,1792,1792,1792,1792,1792,1792,1792,1792,1792,1792,1792,1792,1792,1792,1792,1792,1792,1792,1792,1792,1792,1792,1792,1792,1792,1792,1792,1792,1792,1792,1792,1792,1792,1792,1792,1792,1792,1792,1792,1792,1792,1792,1792,1792,1792,1792,1792,1792,1792,1792,1792,1792,1792,1792,1792,1792,1792,1792,1792,1792,1792,1792,1792,1792,1792,1792,1280,256,256,256,256,256,256,256,256,256,256,256,256,256,256,256,256,512,512,0,0,256,512,1024,1280,1536,1792,2048,2048,1792,1280,1024,1024,1024,1536,1792,1024,0,0,256,1024,1024,1280,1280,1280,1280,1280,1280,1280,1280,1280,1280,1024,1024,1024,1024,1024,1024,1024,1024,1024,1024,1024,1024,1024,512,512,512,256,0,0,0,0,768.0001,1280,1280,1280,1280,1280,1280,1024,512,256,256,512,2304,3584,4352,5120,5120,5120,5120,5120,5120,5120,5120,5120,5120,5120,5120,5120,5120,5120,5120,5376,5632,5632,5376,5376,5120,5120,4864,3072
0,0,256,512,1280,1536,1280,1280,1280,1280,1536,1280,512,256,0,0,0,0,0,0,0,0,0,0,0,0,0,0,0,0,0,0,0,0,0,256,256,512,512,512,256,256,256,256,256,256,256,256,256,256,256,256,256,256,256,256,256,256,256,256,256,256,256,256,256,256,256,256,256,256,256,256,256,256,256,256,256,256,256,256,256,256,256,256,256,256,256,256,256,256,256,256,256,256,256,256,256,256,256,256,256,256,256,256,256,256,256,256,256,256,256,256,256,256,256,256,256,256,256,256,256,256,256,256,256,256,256,256,256,256,256,256,256,256,256,256,256,256,256,256,256,256,256,256,256,0,0,0,0,0,512,2048,3584,4352,4352,4352,4352,4352,4352,4352,4352,4352,4352,4352,4352,4352,4352,4352,4352,4352,4352,4352,4352,4352,4352,4352,4352,4352,4352,4352,4352,4352,4352,4352,4352,4352,4352,4352,4352,4352,4352,4352,4352,4352,4352,4352,4352,4352,4352,4352,4352,4352,4352,4352,4352,4352,4352,4352,4352,4352,4352,4352,4352,4352,4352,4352,4352,4352,4352,4352,4352,4352,4352,4352,4352,4352,4352,4352,4352,4352,4352,4352,4352,4352,4352,4352,4352,4352,4352,4352,4352,4352,4352,4352,4352,4352,4352,4352,4352,4352,4352,4352,4352,4352,4352,4352,4352,4352,4352,4352,4352,4352,4352,4352,4352,4352,4352,4352,4352,4352,4352,4352,4352,4352,4352,4352,4352,4352,4352,4352,4352,4352,4352,4352,4352,4352,4352,4352,4352,4352,4352,4352,4352,4352,4352,4352,4352,4352,4352,4352,4352,4352,4352,4352,4352,4352,4352,4352,4352,4352,4352,4352,4352,4352,4352,4352,4352,4352,4352,4352,4352,4352,4352,4352,4352,4352,4352,4352,4352,4352,4352,4352,4352,4352,4352,4352,4352,4352,4352,4352,4352,4352,4352,4352,4352,4352,4352,4352,4352,4352,4352,4352,4352,4352,4352,4352,4352,4352,4352,4352,4352,4352,4352,4352,4352,4352,4352,4352,4352,4352,4352,4352,4352,4352,4352,4352,4352,4352,4352,4352,4352,4352,4352,4352,4352,4352,4352,3840,1792,1280,1280,1280,1536,1792,1792,1792,1792,1792,1792,1792,1792,1792,1792,1792,1792,1792,1792,1792,1792,1792,1792,1792,1792,1792,1792,1792,1792,1792,1792,1792,1792,1792,1792,1792,1792,1792,1792,1792,1792,1792,1792,1792,1792,1792,1792,1792,1792,1792,1792,1792,1792,1792,1792,1792,1792,1792,1792,1792,1792,1792,1792,1792,1792,1792,1792,1792,1792,1792,1792,1792,1792,1792,1792,1792,1792,1792,1792,1792,1792,1792,1792,1792,1792,1792,1792,1792,1792,1792,1792,1792,1792,1792,1792,1792,1792,1792,1792,1792,1792,1792,1792,1792,1792,1792,1792,1792,1792,1792,1792,1792,1792,1792,1792,1792,1792,1792,1792,1792,1792,1792,1792,1792,1792,1792,1792,1792,1792,1792,1792,1792,1792,1792,1792,1792,1792,1792,1792,1280,256,256,256,256,256,256,256,256,256,256,256,256,256,256,256,256,1024,768.0001,0,0,256,512,1024,1280,1536,1792,2048,2048,1792,1536,1024,1024,1280,1792,2304,1536,256,0,256,1024,1024,1280,1280,1280,1280,1280,1280,1280,1280,1280,1280,1280,1280,1280,1280,1280,1280,1024,1024,1024,1024,1024,1024,1024,1024,768.0001,512,256,256,0,0,0,768.0001,1280,1280,1280,1280,1280,1280,1024,256,256,256,768.0001,2560,4096,4352,4864,5120,5120,5120,5120,5120,5120,5120,5120,5120,5120,5120,5120,5120,5120,5120,5120,5120,5120,5120,5120,5120,5120,5120,3328
0,0,256,512,1280,1536,1280,1280,1280,1280,1536,1280,512,256,0,0,0,0,0,0,0,0,0,0,0,0,0,0,0,0,0,0,0,0,0,256,256,512,512,512,256,256,256,256,256,256,256,256,256,256,256,256,256,256,256,256,256,256,256,256,256,256,256,256,256,256,256,256,256,256,256,256,256,256,256,256,256,256,256,256,256,256,256,256,256,256,256,256,256,256,256,256,256,256,256,256,256,256,256,256,256,256,256,256,256,256,256,256,256,256,256,256,256,256,256,256,256,256,256,256,256,256,256,256,256,256,256,256,256,256,256,256,256,256,256,256,256,256,256,256,256,256,256,256,256,0,0,0,0,0,768.0001,2304,3840,4352,4352,4352,4352,4352,4352,4352,4352,4352,4352,4352,4352,4352,4352,4352,4352,4352,4352,4352,4352,4352,4352,4352,4352,4352,4352,4352,4352,4352,4352,4352,4352,4352,4352,4352,4352,4352,4352,4352,4352,4352,4352,4352,4352,4352,4352,4352,4352,4352,4352,4352,4352,4352,4352,4352,4352,4352,4352,4352,4352,4352,4352,4352,4352,4352,4352,4352,4352,4352,4352,4352,4352,4352,4352,4352,4352,4352,4352,4352,4352,4352,4352,4352,4352,4352,4352,4352,4352,4352,4352,4352,4352,4352,4352,4352,4352,4352,4352,4352,4352,4352,4352,4352,4352,4352,4352,4352,4352,4352,4352,4352,4352,4352,4352,4352,4352,4352,4352,4352,4352,4352,4352,4352,4352,4352,4352,4352,4352,4352,4352,4352,4352,4352,4352,4352,4352,4352,4352,4352,4352,4352,4352,4352,4352,4352,4352,4352,4352,4352,4352,4352,4352,4352,4352,4352,4352,4352,4352,4352,4352,4352,4352,4352,4352,4352,4352,4352,4352,4352,4352,4352,4352,4352,4352,4352,4352,4352,4352,4352,4352,4352,4352,4352,4352,4352,4352,4352,4352,4352,4352,4352,4352,4352,4352,4352,4352,4352,4352,4352,4352,4352,4352,4352,4352,4352,4352,4352,4352,4352,4352,4352,4352,4352,4352,4352,4352,4352,4352,4352,4352,4352,4352,4352,4352,4352,4352,4352,4352,4352,4352,4352,4352,4352,4352,3840,1792,1280,1280,1280,1536,1792,1792,1792,1792,1792,1792,1792,1792,1792,1792,1792,1792,1792,1792,1792,1792,1792,1792,1792,1792,1792,1792,1792,1792,1792,1792,1792,1792,1792,1792,1792,1792,1792,1792,1792,1792,1792,1792,1792,1792,1792,1792,1792,1792,1792,1792,1792,1792,1792,1792,1792,1792,1792,1792,1792,1792,1792,1792,1792,1792,1792,1792,1792,1792,1792,1792,1792,1792,1792,1792,1792,1792,1792,1792,1792,1792,1792,1792,1792,1792,1792,1792,1792,1792,1792,1792,1792,1792,1792,1792,1792,1792,1792,1792,1792,1792,1792,1792,1792,1792,1792,1792,1792,1792,1792,1792,1792,1792,1792,1792,1792,1792,1792,1792,1792,1792,1792,1792,1792,1792,1792,1792,1792,1792,1792,1792,1792,1792,1792,1792,1792,1792,1792,1792,1280,256,256,256,256,256,256,256,256,256,256,256,256,256,256,256,256,768.0001,512,256,0,256,512,1024,1280,1536,1792,2048,2048,1792,1536,1024,1024,1024,1792,2560,2304,512,256,512,1024,1024,1280,1280,1280,1280,1280,1280,1280,1280,1280,1280,1280,1280,1280,1280,1280,1280,1024,1024,1024,1024,1024,1024,1024,768.0001,512,512,256,256,0,0,256,768.0001,1280,1280,1280,1280,1280,1280,1024,256,256,256,768.0001,2560,4096,4352,4864,5120,5120,5120,5120,5120,5120,5120,5120,5120,5120,5120,5120,5120,5120,5120,5120,5120,5120,5120,5120,5120,5120,5120,3328
0,0,256,512,1280,1536,1280,1280,1280,1280,1536,1280,512,256,0,0,0,0,0,0,0,0,0,0,0,0,0,0,0,0,0,0,0,0,0,256,256,512,512,512,256,256,256,256,256,256,256,256,256,256,256,256,256,256,256,256,256,256,256,256,256,256,256,256,256,256,256,256,256,256,256,256,256,256,256,256,256,256,256,256,256,256,256,256,256,256,256,256,256,256,256,256,256,256,256,256,256,256,256,256,256,256,256,256,256,256,256,256,256,256,256,256,256,256,256,256,256,256,256,256,256,256,256,256,256,256,256,256,256,256,256,256,256,256,256,256,256,256,256,256,256,256,256,256,256,0,0,0,0,256,1024,3072,3840,4352,4352,4352,4352,4352,4352,4352,4352,4352,4352,4352,4352,4352,4352,4352,4352,4352,4352,4352,4352,4352,4352,4352,4352,4352,4352,4352,4352,4352,4352,4352,4352,4352,4352,4352,4352,4352,4352,4352,4352,4352,4352,4352,4352,4352,4352,4352,4352,4352,4352,4352,4352,4352,4352,4352,4352,4352,4352,4352,4352,4352,4352,4352,4352,4352,4352,4352,4352,4352,4352,4352,4352,4352,4352,4352,4352,4352,4352,4352,4352,4352,4352,4352,4352,4352,4352,4352,4352,4352,4352,4352,4352,4352,4352,4352,4352,4352,4352,4352,4352,4352,4352,4352,4352,4352,4352,4352,4352,4352,4352,4352,4352,4352,4352,4352,4352,4352,4352,4352,4352,4352,4352,4352,4352,4352,4352,4352,4352,4352,4352,4352,4352,4352,4352,4352,4352,4352,4352,4352,4352,4352,4352,4352,4352,4352,4352,4352,4352,4352,4352,4352,4352,4352,4352,4352,4352,4352,4352,4352,4352,4352,4352,4352,4352,4352,4352,4352,4352,4352,4352,4352,4352,4352,4352,4352,4352,4352,4352,4352,4352,4352,4352,4352,4352,4352,4352,4352,4352,4352,4352,4352,4352,4352,4352,4352,4352,4352,4352,4352,4352,4352,4352,4352,4352,4352,4352,4352,4352,4352,4352,4352,4352,4352,4352,4352,4352,4352,4352,4352,4352,4352,4352,4352,4352,4352,4352,4352,4352,4352,4352,4352,4352,4352,4352,3840,1792,1280,1280,1280,1536,1792,1792,1792,1792,1792,1792,1792,1792,1792,1792,1792,1792,1792,1792,1792,1792,1792,1792,1792,1792,1792,1792,1792,1792,1792,1792,1792,1792,1792,1792,1792,1792,1792,1792,1792,1792,1792,1792,1792,1792,1792,1792,1792,1792,1792,1792,1792,1792,1792,1792,1792,1792,1792,1792,1792,1792,1792,1792,1792,1792,1792,1792,1792,1792,1792,1792,1792,1792,1792,1792,1792,1792,1792,1792,1792,1792,1792,1792,1792,1792,1792,1792,1792,1792,1792,1792,1792,1792,1792,1792,1792,1792,1792,1792,1792,1792,1792,1792,1792,1792,1792,1792,1792,1792,1792,1792,1792,1792,1792,1792,1792,1792,1792,1792,1792,1792,1792,1792,1792,1792,1792,1792,1792,1792,1792,1792,1792,1792,1792,1792,1792,1792,1792,1792,1280,256,256,256,256,256,256,256,256,256,256,256,256,256,256,256,256,512,512,256,0,512,768.0001,1024,1280,1536,1792,2048,2048,1792,1536,1024,1024,1024,1536,2560,2304,768.0001,512,512,1024,1024,1280,1280,1280,1280,1280,1280,1280,1280,1280,1280,1280,1280,1280,1280,1280,1280,1024,768.0001,512,512,768.0001,1024,1024,512,512,256,256,256,256,0,256,1024,1280,1280,1280,1280,1280,1280,1024,256,256,256,768.0001,2560,4096,4352,4864,5120,5120,5120,5120,5120,5120,5120,5120,5120,5120,5120,5120,5120,5120,5120,5120,5120,5120,5120,5120,5120,5120,5120,3328
0,0,256,512,1280,1536,1280,1280,1280,1280,1536,1280,512,256,0,0,0,0,0,0,0,0,0,0,0,0,0,0,0,0,0,0,0,0,0,256,256,512,512,512,256,256,256,256,256,256,256,256,256,256,256,256,256,256,256,256,256,256,256,256,256,256,256,256,256,256,256,256,256,256,256,256,256,256,256,256,256,256,256,256,256,256,256,256,256,256,256,256,256,256,256,256,256,256,256,256,256,256,256,256,256,256,256,256,256,256,256,256,256,256,256,256,256,256,256,256,256,256,256,256,256,256,256,256,256,256,256,256,256,256,256,256,256,256,256,256,256,256,256,256,256,256,256,256,0,0,0,0,0,256,1536,3328,4096,4352,4352,4352,4352,4352,4352,4352,4352,4352,4352,4352,4352,4352,4352,4352,4352,4352,4352,4352,4352,4352,4352,4352,4352,4352,4352,4352,4352,4352,4352,4352,4352,4352,4352,4352,4352,4352,4352,4352,4352,4352,4352,4352,4352,4352,4352,4352,4352,4352,4352,4352,4352,4352,4352,4352,4352,4352,4352,4352,4352,4352,4352,4352,4352,4352,4352,4352,4352,4352,4352,4352,4352,4352,4352,4352,4352,4352,4352,4352,4352,4352,4352,4352,4352,4352,4352,4352,4352,4352,4352,4352,4352,4352,4352,4352,4352,4352,4352,4352,4352,4352,4352,4352,4352,4352,4352,4352,4352,4352,4352,4352,4352,4352,4352,4352,4352,4352,4352,4352,4352,4352,4352,4352,4352,4352,4352,4352,4352,4352,4352,4352,4352,4352,4352,4352,4352,4352,4352,4352,4352,4352,4352,4352,4352,4352,4352,4352,4352,4352,4352,4352,4352,4352,4352,4352,4352,4352,4352,4352,4352,4352,4352,4352,4352,4352,4352,4352,4352,4352,4352,4352,4352,4352,4352,4352,4352,4352,4352,4352,4352,4352,4352,4352,4352,4352,4352,4352,4352,4352,4352,4352,4352,4352,4352,4352,4352,4352,4352,4352,4352,4352,4352,4352,4352,4352,4352,4352,4352,4352,4352,4352,4352,4352,4352,4352,4352,4352,4352,4352,4352,4352,4352,4352,4352,4352,4352,4352,4352,4352,4352,4352,4352,4352,4352,3840,1792,1280,1280,1280,1536,1792,1792,1792,1792,1792,1792,1792,1792,1792,1792,1792,1792,1792,1792,1792,1792,1792,1792,1792,1792,1792,1792,1792,1792,1792,1792,1792,1792,1792,1792,1792,1792,1792,1792,1792,1792,1792,1792,1792,1792,1792,1792,1792,1792,1792,1792,1792,1792,1792,1792,1792,1792,1792,1792,1792,1792,1792,1792,1792,1792,1792,1792,1792,1792,1792,1792,1792,1792,1792,1792,1792,1792,1792,1792,1792,1792,1792,1792,1792,1792,1792,1792,1792,1792,1792,1792,1792,1792,1792,1792,1792,1792,1792,1792,1792,1792,1792,1792,1792,1792,1792,1792,1792,1792,1792,1792,1792,1792,1792,1792,1792,1792,1792,1792,1792,1792,1792,1792,1792,1792,1792,1792,1792,1792,1792,1792,1792,1792,1792,1792,1792,1792,1792,1792,1280,256,256,256,256,256,256,256,256,256,256,256,256,256,256,256,256,256,256,0,256,768.0001,1024,1024,1280,1536,1792,2048,2048,1792,1536,1024,1024,1024,1024,1792,1792,768.0001,512,512,768.0001,1024,1280,1280,1280,1280,1280,1280,1280,1280,1280,1280,1280,1280,1280,1280,1280,1280,1024,512,256,256,512,1024,1024,512,256,256,256,256,256,256,256,1024,1280,1280,1280,1280,1280,1280,1024,256,256,256,768.0001,2560,4096,4352,4864,5120,5120,5120,5120,5120,5120,5120,5120,5120,5120,5120,5120,5120,5120,5120,5120,5120,5120,5120,5120,5120,5120,5120,3328
0,0,256,512,1280,1536,1280,1280,1280,1280,1536,1280,512,256,0,0,0,0,0,0,0,0,0,0,0,0,0,0,0,0,0,0,0,0,0,256,256,512,512,512,256,256,256,256,256,256,256,256,256,256,256,256,256,256,256,256,256,256,256,256,256,256,256,256,256,256,256,256,256,256,256,256,256,256,256,256,256,256,256,256,256,256,256,256,256,256,256,256,256,256,256,256,256,256,256,256,256,256,256,256,256,256,256,256,256,256,256,256,256,256,256,256,256,256,256,256,256,256,256,256,256,256,256,256,256,256,256,256,256,256,256,256,256,256,256,256,256,256,256,256,256,256,256,0,0,0,0,0,0,512,2048,3840,4096,4352,4352,4352,4352,4352,4352,4352,4352,4352,4352,4352,4352,4352,4352,4352,4352,4352,4352,4352,4352,4352,4352,4352,4352,4352,4352,4352,4352,4352,4352,4352,4352,4352,4352,4352,4352,4352,4352,4352,4352,4352,4352,4352,4352,4352,4352,4352,4352,4352,4352,4352,4352,4352,4352,4352,4352,4352,4352,4352,4352,4352,4352,4352,4352,4352,4352,4352,4352,4352,4352,4352,4352,4352,4352,4352,4352,4352,4352,4352,4352,4352,4352,4352,4352,4352,4352,4352,4352,4352,4352,4352,4352,4352,4352,4352,4352,4352,4352,4352,4352,4352,4352,4352,4352,4352,4352,4352,4352,4352,4352,4352,4352,4352,4352,4352,4352,4352,4352,4352,4352,4352,4352,4352,4352,4352,4352,4352,4352,4352,4352,4352,4352,4352,4352,4352,4352,4352,4352,4352,4352,4352,4352,4352,4352,4352,4352,4352,4352,4352,4352,4352,4352,4352,4352,4352,4352,4352,4352,4352,4352,4352,4352,4352,4352,4352,4352,4352,4352,4352,4352,4352,4352,4352,4352,4352,4352,4352,4352,4352,4352,4352,4352,4352,4352,4352,4352,4352,4352,4352,4352,4352,4352,4352,4352,4352,4352,4352,4352,4352,4352,4352,4352,4352,4352,4352,4352,4352,4352,4352,4352,4352,4352,4352,4352,4352,4352,4352,4352,4352,4352,4352,4352,4352,4352,4352,4352,4352,4352,4352,4352,4352,4352,4352,4352,3840,1792,1280,1280,1280,1536,1792,1792,1792,1792,1792,1792,1792,1792,1792,1792,1792,1792,1792,1792,1792,1792,1792,1792,1792,1792,1792,1792,1792,1792,1792,1792,1792,1792,1792,1792,1792,1792,1792,1792,1792,1792,1792,1792,1792,1792,1792,1792,1792,1792,1792,1792,1792,1792,1792,1792,1792,1792,1792,1792,1792,1792,1792,1792,1792,1792,1792,1792,1792,1792,1792,1792,1792,1792,1792,1792,1792,1792,1792,1792,1792,1792,1792,1792,1792,1792,1792,1792,1792,1792,1792,1792,1792,1792,1792,1792,1792,1792,1792,1792,1792,1792,1792,1792,1792,1792,1792,1792,1792,1792,1792,1792,1792,1792,1792,1792,1792,1792,1792,1792,1792,1792,1792,1792,1792,1792,1792,1792,1792,1792,1792,1792,1792,1792,1792,1792,1792,1792,1792,1792,1280,256,256,256,256,256,256,256,256,256,256,256,256,256,256,256,256,256,0,0,256,1024,1280,1280,1280,1536,1792,2048,2048,1792,1536,1024,768.0001,768.0001,768.0001,1024,1024,512,256,256,512,1024,1280,1280,1280,1280,1280,1280,1280,1280,1280,1280,1280,1280,1280,1280,1280,1280,1024,256,256,256,256,1024,1024,512,256,256,256,256,256,256,256,1024,1280,1280,1280,1280,1280,1280,1024,256,256,256,768.0001,2560,4096,4352,4864,5120,5120,5120,5120,5120,5120,5120,5120,5120,5120,5120,5120,5120,5120,5120,5120,5120,5120,5120,5120,5120,5120,5120,3328
0,0,256,512,1280,1536,1280,1280,1280,1280,1536,1280,512,256,0,0,0,0,0,0,0,0,0,0,0,0,0,0,0,0,0,0,0,0,0,256,256,512,512,512,256,256,256,256,256,256,256,256,256,256,256,256,256,256,256,256,256,256,256,256,256,256,256,256,256,256,256,256,256,256,256,256,256,256,256,256,256,256,256,256,256,256,256,256,256,256,256,256,256,256,256,256,256,256,256,256,256,256,256,256,256,256,256,256,256,256,256,256,256,256,256,256,256,256,256,256,256,256,256,256,256,256,256,256,256,256,256,256,256,256,256,256,256,256,256,256,256,256,256,256,256,256,256,0,0,0,0,0,0,768.0001,2560,4096,4352,4352,4352,4352,4352,4352,4352,4352,4352,4352,4352,4352,4352,4352,4352,4352,4352,4352,4352,4352,4352,4352,4352,4352,4352,4352,4352,4352,4352,4352,4352,4352,4352,4352,4352,4352,4352,4352,4352,4352,4352,4352,4352,4352,4352,4352,4352,4352,4352,4352,4352,4352,4352,4352,4352,4352,4352,4352,4352,4352,4352,4352,4352,4352,4352,4352,4352,4352,4352,4352,4352,4352,4352,4352,4352,4352,4352,4352,4352,4352,4352,4352,4352,4352,4352,4352,4352,4352,4352,4352,4352,4352,4352,4352,4352,4352,4352,4352,4352,4352,4352,4352,4352,4352,4352,4352,4352,4352,4352,4352,4352,4352,4352,4352,4352,4352,4352,4352,4352,4352,4352,4352,4352,4352,4352,4352,4352,4352,4352,4352,4352,4352,4352,4352,4352,4352,4352,4352,4352,4352,4352,4352,4352,4352,4352,4352,4352,4352,4352,4352,4352,4352,4352,4352,4352,4352,4352,4352,4352,4352,4352,4352,4352,4352,4352,4352,4352,4352,4352,4352,4352,4352,4352,4352,4352,4352,4352,4352,4352,4352,4352,4352,4352,4352,4352,4352,4352,4352,4352,4352,4352,4352,4352,4352,4352,4352,4352,4352,4352,4352,4352,4352,4352,4352,4352,4352,4352,4352,4352,4352,4352,4352,4352,4352,4352,4352,4352,4352,4352,4352,4352,4352,4352,4352,4352,4352,4352,4352,4352,4352,4352,4352,4352,4352,4352,3840,1792,1280,1280,1280,1536,1792,1792,1792,1792,1792,1792,1792,1792,1792,1792,1792,1792,1792,1792,1792,1792,1792,1792,1792,1792,1792,1792,1792,1792,1792,1792,1792,1792,1792,1792,1792,1792,1792,1792,1792,1792,1792,1792,1792,1792,1792,1792,1792,1792,1792,1792,1792,1792,1792,1792,1792,1792,1792,1792,1792,1792,1792,1792,1792,1792,1792,1792,1792,1792,1792,1792,1792,1792,1792,1792,1792,1792,1792,1792,1792,1792,1792,1792,1792,1792,1792,1792,1792,1792,1792,1792,1792,1792,1792,1792,1792,1792,1792,1792,1792,1792,1792,1792,1792,1792,1792,1792,1792,1792,1792,1792,1792,1792,1792,1792,1792,1792,1792,1792,1792,1792,1792,1792,1792,1792,1792,1792,1792,1792,1792,1792,1792,1792,1792,1792,1792,1792,1792,1792,1280,512,256,256,256,256,256,256,256,256,256,256,256,256,256,256,256,256,0,0,256,1024,1536,1280,1280,1536,1792,2048,2048,1792,1536,1024,768.0001,512,512,256,256,256,256,256,512,1024,1280,1280,1280,1280,1280,1280,1280,1280,1280,1280,1280,1280,1280,1280,1280,1280,1024,256,256,256,256,1024,1024,256,256,256,256,256,256,256,512,1024,1280,1280,1280,1280,1280,1280,1024,256,256,256,768.0001,2560,4096,4352,4864,5120,5120,5120,5120,5120,5120,5120,5120,5120,5120,5120,5120,5120,5120,5120,5120,5120,5120,5120,5120,5120,5120,5120,3328
0,256,256,512,1280,1536,1280,1280,1280,1280,1536,1280,512,256,256,0,0,0,0,0,0,0,0,0,0,0,0,0,0,0,0,0,0,0,0,256,256,512,512,512,256,256,256,256,256,256,256,256,256,256,256,256,256,256,256,256,256,256,256,256,256,256,256,256,256,256,256,256,256,256,256,256,256,256,256,256,256,256,256,256,256,256,256,256,256,256,256,256,256,256,256,256,256,256,256,256,256,256,256,256,256,256,256,256,256,256,256,256,256,256,256,256,256,256,256,256,256,256,256,256,256,256,256,256,256,256,256,256,256,256,256,256,256,256,256,256,256,256,256,256,256,0,0,0,0,0,0,0,0,1024,3072,4864,4352,4352,4352,4352,4352,4352,4352,4352,4352,4352,4352,4352,4352,4352,4352,4352,4352,4352,4352,4352,4352,4352,4352,4352,4352,4352,4352,4352,4352,4352,4352,4352,4352,4352,4352,4352,4352,4352,4352,4352,4352,4352,4352,4352,4352,4352,4352,4352,4352,4352,4352,4352,4352,4352,4352,4352,4352,4352,4352,4352,4352,4352,4352,4352,4352,4352,4352,4352,4352,4352,4352,4352,4352,4352,4352,4352,4352,4352,4352,4352,4352,4352,4352,4352,4352,4352,4352,4352,4352,4352,4352,4352,4352,4352,4352,4352,4352,4352,4352,4352,4352,4352,4352,4352,4352,4352,4352,4352,4352,4352,4352,4352,4352,4352,4352,4352,4352,4352,4352,4352,4352,4352,4352,4352,4352,4352,4352,4352,4352,4352,4352,4352,4352,4352,4352,4352,4352,4352,4352,4352,4352,4352,4352,4352,4352,4352,4352,4352,4352,4352,4352,4352,4352,4352,4352,4352,4352,4352,4352,4352,4352,4352,4352,4352,4352,4352,4352,4352,4352,4352,4352,4352,4352,4352,4352,4352,4352,4352,4352,4352,4352,4352,4352,4352,4352,4352,4352,4352,4352,4352,4352,4352,4352,4352,4352,4352,4352,4352,4352,4352,4352,4352,4352,4352,4352,4352,4352,4352,4352,4352,4352,4352,4352,4352,4352,4352,4352,4352,4352,4352,4352,4352,4352,4352,4352,4352,4352,4352,4352,4352,4352,4352,4864,4864,4352,3584,1792,1280,1024,1280,1536,1792,1792,1792,1792,1792,1792,1792,1792,1792,1792,1792,1792,1792,1792,1792,1792,1792,1792,1792,1792,1792,1792,1792,1792,1792,1792,1792,1792,1792,1792,1792,1792,1792,1792,1792,1792,1792,1792,1792,1792,1792,1792,1792,1792,1792,1792,1792,1792,1792,1792,1792,1792,1792,1792,1792,1792,1792,1792,1792,1792,1792,1792,1792,1792,1792,1792,1792,1792,1792,1792,1792,1792,1792,1792,1792,1792,1792,1792,1792,1792,1792,1792,1792,1792,1792,1792,1792,1792,1792,1792,1792,1792,1792,1792,1792,1792,1792,1792,1792,1792,1792,1792,1792,1792,1792,1792,1792,1792,1792,1792,1792,1792,1792,1792,1792,1792,1792,1792,1792,1792,1792,1792,1792,1792,1792,1792,1792,1792,1792,1792,1792,1792,1536,1536,1024,512,512,512,512,512,768.0001,768.0001,768.0001,512,512,512,512,512,512,512,512,512,256,256,256,768.0001,1024,1024,1280,1536,1792,2048,2048,1792,1536,1024,768.0001,512,256,256,0,0,0,256,512,1024,1280,1280,1280,1280,1280,1280,1280,1280,1280,1280,1280,1280,1280,1280,1024,1024,1024,512,256,256,256,768.0001,512,256,0,256,256,256,256,256,512,1024,1024,1024,1280,1280,1024,1024,768.0001,256,256,256,768.0001,3072,4096,4352,4864,5120,5120,5120,5120,5120,5120,5120,5120,5120,5120,5120,5120,5120,5120,5120,5120,5120,5120,5120,5120,5120,5120,5120,3328
512,512,768.0001,1024,1024,1280,1536,1536,1536,1536,1280,1024,1024,768.0001,512,512,0,0,0,0,0,0,0,0,0,0,0,0,0,0,0,0,0,0,0,256,256,512,512,512,256,256,256,256,256,256,256,256,256,256,256,256,256,256,256,256,256,256,256,256,256,256,256,256,256,256,256,256,256,256,256,256,256,256,256,256,256,256,256,256,256,256,256,256,256,256,256,256,256,256,256,256,256,256,256,256,256,256,256,256,256,256,256,256,256,256,256,256,256,256,256,256,256,256,256,256,256,256,256,256,256,256,256,256,256,256,256,256,256,256,256,256,256,256,256,256,256,256,256,256,0,0,0,0,0,0,0,0,256,1024,3328,4864,4864,4352,4352,4352,4352,4352,4352,4352,4352,4352,4352,4352,4352,4352,4352,4352,4352,4352,4352,4352,4352,4352,4352,4352,4352,4352,4352,4352,4352,4352,4352,4352,4352,4352,4352,4352,4352,4352,4352,4352,4352,4352,4352,4352,4352,4352,4352,4352,4352,4352,4352,4352,4352,4352,4352,4352,4352,4352,4352,4352,4352,4352,4352,4352,4352,4352,4352,4352,4352,4352,4352,4352,4352,4352,4352,4352,4352,4352,4352,4352,4352,4352,4352,4352,4352,4352,4352,4352,4352,4352,4352,4352,4352,4352,4352,4352,4352,4352,4352,4352,4352,4352,4352,4352,4352,4352,4352,4352,4352,4352,4352,4352,4352,4352,4352,4352,4352,4352,4352,4352,4352,4352,4352,4352,4352,4352,4352,4352,4352,4352,4352,4352,4352,4352,4352,4352,4352,4352,4352,4352,4352,4352,4352,4352,4352,4352,4352,4352,4352,4352,4352,4352,4352,4352,4352,4352,4352,4352,4352,4352,4352,4352,4352,4352,4352,4352,4352,4352,4352,4352,4352,4352,4352,4352,4352,4352,4352,4352,4352,4352,4352,4352,4352,4352,4352,4352,4352,4352,4352,4352,4352,4352,4352,4352,4352,4352,4352,4352,4352,4352,4352,4352,4352,4352,4352,4352,4352,4352,4352,4352,4352,4352,4352,4352,4352,4352,4352,4352,4352,4352,4352,4352,4352,4352,4352,4352,4352,4352,4352,4352,4352,4864,4864,4864,4096,3584,2048,1280,1024,1024,1792,2048,2048,2048,2048,2048,2048,2048,1792,1792,1792,1792,1792,1792,1792,1792,1792,1792,1792,1792,1792,1792,1792,1792,1792,1792,1792,1792,1792,1792,1792,1792,1792,1792,1792,1792,1792,1792,1792,1792,1792,1792,1792,1792,1792,1792,1792,1792,2048,2048,2048,2048,2048,2048,2048,2048,1792,1792,1792,1792,1792,1792,1792,1792,1792,1792,1792,1792,1792,1792,1792,1792,1792,1792,1792,1792,1792,1792,1792,1792,1792,1792,1792,1792,1792,1792,1792,1792,1792,1792,1792,1792,1792,1792,1792,1792,1792,1792,1792,1792,1792,1792,1792,1792,1792,1792,1792,1792,1792,1792,1792,1792,1792,1792,1792,1792,1792,1792,1792,1792,1792,1792,1792,1792,1792,1792,1792,1792,2048,2048,2048,2048,1792,1536,1024,1024,1024,1024,1024,1280,1792,2304,2560,2560,2048,1792,1792,1792,1792,1792,1792,2048,1792,1280,256,256,256,512,1024,1280,1280,1536,1792,1792,1792,1536,1536,1024,256,0,0,0,0,0,0,256,1024,1280,1280,1280,1280,1280,1280,1280,1280,1280,1280,1280,1280,1280,1280,1024,1024,1024,1024,768.0001,512,512,512,256,0,0,0,0,0,0,256,256,768.0001,1024,1024,1280,1280,1024,768.0001,512,256,256,256,1024,3072,4096,4352,5120,5120,5120,5120,5120,5120,5120,5120,5120,5120,5120,5120,5120,5120,5120,5120,5120,5120,5120,5120,5120,5120,5120,5120,3328
768.0001,768.0001,768.0001,1024,1024,1280,1536,1792,1792,1536,1280,1024,1024,768.0001,768.0001,512,0,0,0,0,0,0,0,0,0,0,0,0,256,256,256,0,0,0,0,256,256,512,512,512,256,256,256,256,256,256,256,256,256,256,256,256,256,256,256,256,256,256,256,256,256,256,256,256,256,256,256,256,256,256,256,256,256,256,256,256,256,256,256,256,256,256,256,256,256,256,256,256,256,256,256,256,256,256,256,256,256,256,256,256,256,256,256,256,256,256,256,256,256,256,256,256,256,256,256,256,256,256,256,256,256,256,256,256,256,256,256,256,256,256,256,256,256,256,256,256,256,256,256,256,0,0,0,0,0,0,0,0,256,1280,3584,5120,4864,4352,4352,4352,4352,4352,4352,4352,4352,4352,4352,4352,4352,4352,4352,4352,4352,4352,4352,4352,4352,4352,4352,4352,4352,4352,4352,4352,4352,4352,4352,4352,4352,4352,4352,4352,4352,4352,4352,4352,4352,4352,4352,4352,4352,4352,4352,4352,4352,4352,4352,4352,4352,4352,4352,4352,4352,4352,4352,4352,4352,4352,4352,4352,4352,4352,4352,4352,4352,4352,4352,4352,4352,4352,4352,4352,4352,4352,4352,4352,4352,4352,4352,4352,4352,4352,4352,4352,4352,4352,4352,4352,4352,4352,4352,4352,4352,4352,4352,4352,4352,4352,4352,4352,4352,4352,4352,4352,4352,4352,4352,4352,4352,4352,4352,4352,4352,4352,4352,4352,4352,4352,4352,4352,4352,4352,4352,4352,4352,4352,4352,4352,4352,4352,4352,4352,4352,4352,4352,4352,4352,4352,4352,4352,4352,4352,4352,4352,4352,4352,4352,4352,4352,4352,4352,4352,4352,4352,4352,4352,4352,4352,4352,4352,4352,4352,4352,4352,4352,4352,4352,4352,4352,4352,4352,4352,4352,4352,4352,4352,4352,4352,4352,4352,4352,4352,4352,4352,4352,4352,4352,4352,4352,4352,4352,4352,4352,4352,4352,4352,4352,4352,4352,4352,4352,4352,4352,4352,4352,4352,4352,4352,4352,4352,4352,4352,4352,4352,4352,4352,4352,4352,4352,4352,4352,4352,4352,4352,4352,4352,4352,4864,5120,4864,4096,3584,2048,1536,1024,1024,1792,2304,2304,2304,2304,2304,2304,2048,1792,1792,1792,1792,1792,1792,1792,1792,1792,1792,1792,1792,1792,1792,1792,1792,1792,1792,1792,1792,1792,1792,1792,1792,1792,1792,1792,1792,1792,1792,1792,1792,1792,1792,1792,1792,1792,1792,1792,1792,2048,2048,2048,2048,2048,2048,2048,2048,1792,1792,1792,1792,1792,1792,1792,1536,1536,1536,1536,1536,1536,1536,1536,1536,1536,1792,1792,1792,1792,1792,1792,1792,1792,1792,1792,1792,1792,1792,1792,1792,1792,1792,1792,1792,1792,1792,1792,1792,1792,1792,1792,1792,1792,1792,1792,1792,1792,1792,1792,1792,1792,1792,1792,1792,1792,1792,1792,1792,1792,1792,1792,1792,1792,1792,1792,1792,1792,1792,1792,1792,2048,2304,2048,2048,1792,1280,1024,1024,1792,2048,2304,2560,3328,3840,4352,4096,3328,3072,3072,3072,3072,3072,3072,3072,3328,2048,512,256,256,256,768.0001,1280,1280,1280,1536,1792,1792,1792,1792,1024,256,0,0,0,0,0,0,256,768.0001,1280,1280,1280,1280,1280,1280,1280,1280,1280,1280,1280,1280,1280,1280,1024,1024,1024,1280,1280,1024,768.0001,512,256,0,0,0,0,0,0,0,256,512,1024,1024,1280,1280,1024,768.0001,512,256,256,256,1024,3072,4352,4864,5120,5120,5120,5120,5120,5120,5120,5120,5120,5120,5120,5120,5120,5120,5120,5120,5120,5120,5120,5120,5120,5120,5120,5120,3328
768.0001,768.0001,768.0001,1024,1024,1280,1536,1792,1792,1536,1280,1024,1024,768.0001,768.0001,512,0,0,0,0,0,0,256,256,256,256,256,256,256,256,256,0,0,0,0,256,256,512,512,512,256,256,256,256,256,256,256,256,256,256,256,256,256,256,256,256,256,256,256,256,256,256,256,256,256,256,256,256,256,256,256,256,256,256,256,256,256,256,256,256,256,256,256,256,256,256,256,256,256,256,256,256,256,256,256,256,256,256,256,256,256,256,256,256,256,256,256,256,256,256,256,256,256,256,256,256,256,256,256,256,256,256,256,256,256,256,256,256,256,256,256,256,256,256,256,256,256,256,256,256,0,0,0,0,0,0,0,0,512,1792,3840,5120,4864,4352,4352,4352,4352,4352,4352,4352,4352,4352,4352,4352,4352,4352,4352,4352,4352,4352,4352,4352,4352,4352,4352,4352,4352,4352,4352,4352,4352,4352,4352,4352,4352,4352,4352,4352,4352,4352,4352,4352,4352,4352,4352,4352,4352,4352,4352,4352,4352,4352,4352,4352,4352,4352,4352,4352,4352,4352,4352,4352,4352,4352,4352,4352,4352,4352,4352,4352,4352,4352,4352,4352,4352,4352,4352,4352,4352,4352,4352,4352,4352,4352,4352,4352,4352,4352,4352,4352,4352,4352,4352,4352,4352,4352,4352,4352,4352,4352,4352,4352,4352,4352,4352,4352,4352,4352,4352,4352,4352,4352,4352,4352,4352,4352,4352,4352,4352,4352,4352,4352,4352,4352,4352,4352,4352,4352,4352,4352,4352,4352,4352,4352,4352,4352,4352,4352,4352,4352,4352,4352,4352,4352,4352,4352,4352,4352,4352,4352,4352,4352,4352,4352,4352,4352,4352,4352,4352,4352,4352,4352,4352,4352,4352,4352,4352,4352,4352,4352,4352,4352,4352,4352,4352,4352,4352,4352,4352,4352,4352,4352,4352,4352,4352,4352,4352,4352,4352,4352,4352,4352,4352,4352,4352,4352,4352,4352,4352,4352,4352,4352,4352,4352,4352,4352,4352,4352,4352,4352,4352,4352,4352,4352,4352,4352,4352,4352,4352,4352,4352,4352,4352,4352,4352,4352,4352,4352,4352,4352,4352,4352,4352,4864,5120,4864,4096,3584,2048,1536,1024,1024,1792,2304,2304,2304,2304,2304,2304,2048,1792,1792,1792,1792,1792,1792,1792,1792,1792,1792,1792,1792,1792,1792,1792,1792,2048,2048,2048,2048,2048,2048,2048,2048,1792,1792,1792,1792,1792,1792,1792,1792,2048,2048,2048,2048,2048,2048,2048,2048,1792,1792,1792,1792,1792,1792,1792,1792,1792,1792,1792,1792,1792,1792,1792,1536,1024,768.0001,768.0001,768.0001,768.0001,768.0001,768.0001,1024,1536,1792,1792,1792,1792,1792,1792,1792,1792,1792,1792,1792,1792,1792,1792,1792,1792,1792,1792,1792,1792,1792,1792,1792,1792,1792,1792,1792,1792,1792,1792,1792,1792,1792,1792,1792,1792,1792,1792,1792,1792,1792,1792,1792,1792,1792,1792,1792,1792,1792,1792,1792,1792,1792,1792,1792,2048,2048,2048,1792,1536,1280,1280,1792,2560,3072,3328,3584,4096,4352,4864,4864,3840,3584,3584,3584,3584,3584,3584,3584,3584,2560,1024,256,0,256,768.0001,1280,1280,1280,1536,1792,1792,1792,1792,1024,256,0,0,0,0,0,0,256,768.0001,1280,1280,1280,1280,1280,1280,1280,1280,1280,1280,1280,1280,1280,1280,1024,1024,1280,1536,1536,1280,1024,512,256,0,0,0,0,0,0,0,256,512,768.0001,1024,1280,1280,1024,1024,512,256,256,256,1024,3072,4352,4864,5120,5120,5120,5120,5120,5120,5120,5120,5120,5120,5120,5120,5120,5120,5120,5120,5120,5120,5120,5120,5120,5120,5120,5120,3328
768.0001,768.0001,768.0001,1024,1024,1280,1536,1792,1792,1536,1280,1024,1024,768.0001,768.0001,512,256,0,0,256,256,512,512,768.0001,1024,1024,512,256,256,0,0,0,0,0,0,256,256,512,512,512,256,256,256,256,256,256,256,256,256,256,256,256,256,256,256,256,256,256,256,256,256,256,256,256,256,256,256,256,256,256,256,256,256,256,256,256,256,256,256,256,256,256,256,256,256,256,256,256,256,256,256,256,256,256,256,256,256,256,256,256,256,256,256,256,256,256,256,256,256,256,256,256,256,256,256,256,256,256,256,256,256,256,256,256,256,256,256,256,256,256,256,256,256,256,256,256,256,256,256,256,0,0,0,0,0,0,0,0,768.0001,2304,3840,4864,4864,4352,4352,4352,4352,4352,4352,4352,4352,4352,4352,4352,4352,4352,4352,4352,4352,4352,4352,4352,4352,4352,4352,4352,4352,4352,4352,4352,4352,4352,4352,4352,4352,4352,4352,4352,4352,4352,4352,4352,4352,4352,4352,4352,4352,4352,4352,4352,4352,4352,4352,4352,4352,4352,4352,4352,4352,4352,4352,4352,4352,4352,4352,4352,4352,4352,4352,4352,4352,4352,4352,4352,4352,4352,4352,4352,4352,4352,4352,4352,4352,4352,4352,4352,4352,4352,4352,4352,4352,4352,4352,4352,4352,4352,4352,4352,4352,4352,4352,4352,4352,4352,4352,4352,4352,4352,4352,4352,4352,4352,4352,4352,4352,4352,4352,4352,4352,4352,4352,4352,4352,4352,4352,4352,4352,4352,4352,4352,4352,4352,4352,4352,4352,4352,4352,4352,4352,4352,4352,4352,4352,4352,4352,4352,4352,4352,4352,4352,4352,4352,4352,4352,4352,4352,4352,4352,4352,4352,4352,4352,4352,4352,4352,4352,4352,4352,4352,4352,4352,4352,4352,4352,4352,4352,4352,4352,4352,4352,4352,4352,4352,4352,4352,4352,4352,4352,4352,4352,4352,4352,4352,4352,4352,4352,4352,4352,4352,4352,4352,4352,4352,4352,4352,4352,4352,4352,4352,4352,4352,4352,4352,4352,4352,4352,4352,4352,4352,4352,4352,4352,4352,4352,4352,4352,4352,4352,4352,4352,4352,4352,4352,4864,5120,4864,4096,3584,2048,1536,1024,1024,1792,2304,2304,2304,2304,2304,2304,2048,1792,1792,1792,1792,1792,1792,1792,1792,1792,1792,1792,1792,1792,1792,1792,1792,2048,2048,2048,2048,2048,2048,2048,2048,1792,1792,1792,1792,1792,1792,1792,1792,2048,2048,2048,2048,2048,2048,2048,2048,1792,1536,1536,1536,1536,1536,1536,1536,1536,1536,1536,1536,1536,1536,1536,1024,512,256,256,256,256,256,256,512,1280,1792,1792,1792,1792,1792,1792,1792,1792,1792,1792,1792,1792,1792,1792,1792,1792,1792,1792,1792,1792,1792,1792,1792,1792,1792,1792,1792,1792,1792,1792,1792,1792,1792,1792,1792,1792,1792,1792,1792,1792,1792,1792,1792,1792,1792,1792,1792,1792,1792,1792,1792,1792,1792,1792,1792,2048,2048,1792,1536,1024,1280,1792,2304,3328,3584,3840,4096,4352,4864,5120,5120,4352,4096,4096,4096,4096,4096,4096,4096,4096,3328,1792,512,256,256,768.0001,1024,1024,1280,1536,1792,1792,1792,1792,1024,256,0,0,0,0,0,0,256,768.0001,1280,1280,1280,1280,1280,1280,1280,1280,1280,1280,1280,1280,1280,1280,1024,1024,1280,1536,1536,1280,1024,512,256,0,0,0,0,0,0,0,256,256,512,1024,1024,1280,1280,1024,768.0001,512,256,256,1024,3072,4352,4864,5120,5120,5120,5120,5120,5120,5120,5120,5120,5120,5120,5120,5120,5120,5120,5120,5120,5120,5120,5120,5120,5120,5120,5120,3328
768.0001,768.0001,768.0001,1024,1024,1280,1536,1792,1792,1536,1280,1024,1024,768.0001,768.0001,512,256,256,256,256,1024,1280,1792,2304,2560,2048,1024,512,0,0,0,0,0,0,0,256,256,512,512,512,256,256,256,256,256,256,256,256,256,256,256,256,256,256,256,256,256,256,256,256,256,256,256,256,256,256,256,256,256,256,256,256,256,256,256,256,256,256,256,256,256,256,256,256,256,256,256,256,256,256,256,256,256,256,256,256,256,256,256,256,256,256,256,256,256,256,256,256,256,256,256,256,256,256,256,256,256,256,256,256,256,256,256,256,256,256,256,256,256,256,256,256,256,256,256,256,256,256,256,256,0,0,0,0,0,0,0,256,1536,3328,3840,4864,4352,4352,4352,4352,4352,4352,4352,4352,4352,4352,4352,4352,4352,4352,4352,4352,4352,4352,4352,4352,4352,4352,4352,4352,4352,4352,4352,4352,4352,4352,4352,4352,4352,4352,4352,4352,4352,4352,4352,4352,4352,4352,4352,4352,4352,4352,4352,4352,4352,4352,4352,4352,4352,4352,4352,4352,4352,4352,4352,4352,4352,4352,4352,4352,4352,4352,4352,4352,4352,4352,4352,4352,4352,4352,4352,4352,4352,4352,4352,4352,4352,4352,4352,4352,4352,4352,4352,4352,4352,4352,4352,4352,4352,4352,4352,4352,4352,4352,4352,4352,4352,4352,4352,4352,4352,4352,4352,4352,4352,4352,4352,4352,4352,4352,4352,4352,4352,4352,4352,4352,4352,4352,4352,4352,4352,4352,4352,4352,4352,4352,4352,4352,4352,4352,4352,4352,4352,4352,4352,4352,4352,4352,4352,4352,4352,4352,4352,4352,4352,4352,4352,4352,4352,4352,4352,4352,4352,4352,4352,4352,4352,4352,4352,4352,4352,4352,4352,4352,4352,4352,4352,4352,4352,4352,4352,4352,4352,4352,4352,4352,4352,4352,4352,4352,4352,4352,4352,4352,4352,4352,4352,4352,4352,4352,4352,4352,4352,4352,4352,4352,4352,4352,4352,4352,4352,4352,4352,4352,4352,4352,4352,4352,4352,4352,4352,4352,4352,4352,4352,4352,4352,4352,4352,4352,4352,4352,4352,4352,4352,4352,4352,4864,5120,4864,4096,3584,2048,1536,1024,1024,1792,2304,2304,2304,2304,2304,2304,2048,1792,1792,1792,1792,1792,1792,1792,1792,1792,1792,1792,1792,1792,1792,1792,1792,1792,1792,1792,1792,1792,1792,1792,1792,1792,1792,1792,1792,1792,1792,1792,1792,1792,1792,1792,1792,1792,1792,1792,1792,1536,1280,1280,1280,1280,1280,1280,1280,1024,1024,1024,1024,1024,1024,1024,768.0001,256,0,0,0,0,0,0,256,1024,1792,1792,1792,1792,1792,1792,1792,1792,1792,1792,1792,1792,1792,1792,1792,1792,1792,1792,1792,1792,1792,1792,1792,1792,1792,1792,1792,1792,1792,1792,1792,1792,1792,1792,1792,1792,1792,1792,1792,1792,1792,1792,1792,1792,1792,1792,1792,1792,1792,1792,1792,1792,1792,1792,1792,1792,1792,1792,1280,1024,1024,2304,3328,4096,4096,4352,4352,4864,5120,5120,5120,5120,4864,4864,4864,4864,4864,4864,4864,4352,3840,2560,1024,256,256,512,1024,1024,1280,1536,1792,1792,1792,1792,1024,256,0,0,0,0,0,0,256,768.0001,1280,1280,1280,1280,1280,1280,1280,1280,1280,1280,1280,1280,1280,1280,1024,1024,1024,1280,1280,1024,768.0001,512,256,0,0,0,0,0,0,0,256,256,512,768.0001,1024,1280,1536,1280,1024,512,512,512,1024,3584,4864,5120,5120,5120,5120,5120,5120,5120,5120,5120,5120,5120,5120,5120,5120,5120,5120,5120,5120,5120,5120,5120,5120,5120,5120,5120,3328
768.0001,768.0001,768.0001,1024,1024,1280,1536,1792,1792,1536,1280,1024,1024,768.0001,768.0001,512,256,256,256,512,1536,2304,3072,3584,3840,3328,1536,512,0,0,0,0,0,0,0,256,256,512,512,512,256,256,256,256,256,256,256,256,256,256,256,256,256,256,256,256,256,256,256,256,256,256,256,256,256,256,256,256,256,256,256,256,256,256,256,256,256,256,256,256,256,256,256,256,256,256,256,256,256,256,256,256,256,256,256,256,256,256,256,256,256,256,256,256,256,256,256,256,256,256,256,256,256,256,256,256,256,256,256,256,256,256,256,256,256,256,256,256,256,256,256,256,256,256,256,256,256,256,256,256,0,0,0,0,0,256,0,512,2304,3840,4096,4352,4352,4352,4352,4352,4352,4352,4352,4352,4352,4352,4352,4352,4352,4352,4352,4352,4352,4352,4352,4352,4352,4352,4352,4352,4352,4352,4352,4352,4352,4352,4352,4352,4352,4352,4352,4352,4352,4352,4352,4352,4352,4352,4352,4352,4352,4352,4352,4352,4352,4352,4352,4352,4352,4352,4352,4352,4352,4352,4352,4352,4352,4352,4352,4352,4352,4352,4352,4352,4352,4352,4352,4352,4352,4352,4352,4352,4352,4352,4352,4352,4352,4352,4352,4352,4352,4352,4352,4352,4352,4352,4352,4352,4352,4352,4352,4352,4352,4352,4352,4352,4352,4352,4352,4352,4352,4352,4352,4352,4352,4352,4352,4352,4352,4352,4352,4352,4352,4352,4352,4352,4352,4352,4352,4352,4352,4352,4352,4352,4352,4352,4352,4352,4352,4352,4352,4352,4352,4352,4352,4352,4352,4352,4352,4352,4352,4352,4352,4352,4352,4352,4352,4352,4352,4352,4352,4352,4352,4352,4352,4352,4352,4352,4352,4352,4352,4352,4352,4352,4352,4352,4352,4352,4352,4352,4352,4352,4352,4352,4352,4352,4352,4352,4352,4352,4352,4352,4352,4352,4352,4352,4352,4352,4352,4352,4352,4352,4352,4352,4352,4352,4352,4352,4352,4352,4352,4352,4352,4352,4352,4352,4352,4352,4352,4352,4352,4352,4352,4352,4352,4352,4352,4352,4352,4352,4352,4352,4352,4352,4352,4352,4352,4864,5120,4864,4096,3584,2048,1536,1024,1024,1792,2304,2304,2304,2304,2304,2304,2048,1792,1792,1792,1792,1792,1792,1792,1792,1792,1792,1792,1792,1792,1792,1792,1536,1536,1536,1536,1536,1536,1536,1536,1536,1536,1792,1792,1792,1792,1792,1792,1536,1536,1536,1536,1536,1536,1536,1536,1280,1024,1024,1024,1024,1024,1024,1024,1024,1024,1024,1024,1024,1024,1024,1024,768.0001,256,0,0,0,0,0,256,256,1024,1792,1792,1792,1792,1792,1792,1792,1792,1792,1792,1792,1792,1792,1792,1792,1792,1792,1792,1792,1792,1792,1792,1792,1792,1792,1792,1792,1792,1792,1792,1792,1792,1792,1792,1792,1792,1792,1792,1792,1792,1792,1792,1792,1792,1792,1792,1792,1792,1792,1792,1792,1792,1792,1792,1792,1536,1536,1792,1280,512,1024,2560,3840,4352,4352,4352,4864,4864,4864,4864,4864,4864,4864,4864,4864,4864,4864,4864,4864,4864,4352,3840,2048,256,0,512,1024,1024,1280,1536,1792,1792,1792,1792,1024,256,0,0,0,0,0,0,256,768.0001,1280,1280,1280,1280,1280,1280,1280,1280,1280,1280,1280,1280,1280,1280,1024,768.0001,768.0001,1024,1024,768.0001,512,256,0,0,0,0,0,0,0,0,256,256,256,512,1024,1536,1536,1280,1024,512,512,512,1024,3584,4864,5120,5120,5120,5120,5120,5120,5120,5120,5120,5120,5120,5120,5120,5120,5120,5120,5120,5120,5120,5120,5120,5120,5120,5120,5120,3328
