0,0,0,0,0,0,0,0,0,0,0,0,0,0,0,0,0,0,768.0001,2560,3840,5120,5120,5120,5120,5120,5120,5120,5120,5120,5120,5120,5120,5120,5120,5120,5120,5120,5120,5120,5120,5120,5120,5120,5120,5120,5120,5120,5120,5120,5120,5120,5120,5120,5120,5120,5120,5120,5120,5120,5120,5120,5120,5120,5120,5120,5120,5120,5120,5120,4352,3840,2048,768.0001,1792,3840,3840,3840,3840,3840,3840,3840,3840,3840,3840,3840,3840,3840,3840,3840,3840,3840,3840,3840,3584,3840,4096,4352,4352,4352,4352,4352,4352,4352,4352,4352,4352,4352,4352,4352,4352,4352,4352,4352,4352,4352,4352,4352,4352,4352,4352,4352,4352,4352,4352,4352,4352,4352,4352,4352,4352,4352,4352,4352,4352,4352,4352,4352,4352,4352,4352,4352,4352,4352,4352,4352,4352,4352,4352,4352,4352,4352,4352,4352,4352,4352,4352,4352,4352,4352,4352,4352,4352,4352,4352,4352,4352,4352,4352,4352,4352,4352,4352,4352,4352,4352,4352,4352,4352,4352,4352,4352,4352,4352,4352,4352,4352,4352,4352,4352,4352,4352,4352,4352,4352,4352,4352,4352,4352,4352,4352,4352,4352,4352,4352,4352,4352,4352,4352,4352,4352,4352,4352,4352,4352,4352,4352,4352,4352,4352,4352,4352,4352,4352,4352,4352,4352,4352,4352,4352,4352,4352,4352,4352,4352,4352,4352,4352,4352,4352,4352,4352,4352,4352,4352,4352,4352,4352,4352,4352,4352,4352,4352,4352,4096,4352,4864,5120,5120,5120,4352,3840,3584,3328,3584,3328,3328,3072,2048,1024,512,512,512,768.0001,768.0001,768.0001,768.0001,768.0001,768.0001,768.0001,768.0001,768.0001,768.0001,768.0001,768.0001,768.0001,768.0001,768.0001,768.0001,768.0001,768.0001,768.0001,768.0001,768.0001,768.0001,768.0001,768.0001,768.0001,768.0001,768.0001,768.0001,768.0001,768.0001,768.0001,768.0001,768.0001,768.0001,768.0001,768.0001,768.0001,768.0001,768.0001,768.0001,768.0001,768.0001,768.0001,768.0001,768.0001,768.0001,768.0001,768.0001,768.0001,768.0001,768.0001,768.0001,768.0001,768.0001,768.0001,768.0001,768.0001,768.0001,768.0001,768.0001,768.0001,768.0001,768.0001,768.0001,768.0001,768.0001,768.0001,768.0001,768.0001,768.0001,768.0001,768.0001,768.0001,768.0001,768.0001,768.0001,768.0001,768.0001,768.0001,768.0001,768.0001,768.0001,768.0001,768.0001,768.0001,768.0001,768.0001,768.0001,768.0001,768.0001,768.0001,768.0001,768.0001,768.0001,768.0001,768.0001,768.0001,768.0001,768.0001,768.0001,768.0001,768.0001,768.0001,768.0001,768.0001,768.0001,768.0001,768.0001,768.0001,768.0001,768.0001,768.0001,768.0001,768.0001,768.0001,768.0001,768.0001,768.0001,768.0001,768.0001,768.0001,768.0001,768.0001,768.0001,768.0001,768.0001,768.0001,512,512,256,512,512,1024,1792,2304,1536,768.0001,768.0001,768.0001,768.0001,768.0001,768.0001,768.0001,768.0001,768.0001,768.0001,768.0001,768.0001,768.0001,768.0001,768.0001,1536,2304,2304,2304,2304,2304,2560,3072,3328,3840,4096,4352,4352,4352,4352,4352,4096,3840,4096,4352,4352,4352,4352,4352,4352,4352,4352,4352,4352,4352,4352,4352,4352,4352,4352,4352,4352,4352,4352,4352,4352,4352,4352,4352,4096,4096,4096,4352,4352,4352,4352,4352,4352,4352,4352,4352,4352,4352,4352,4352,4352,4352,4352,4352,4352,4352,4352,4352,4352,4352,4352,4352,4352,4352,4352,4352,4352,4352,4352,4352,4352,4352,4352,4352,4352,4352,4352,4352,4352,4352,4352,4352,4352,4352,4352,4352,4352,4352,4352,4096,3072,1024,0,0,0,768.0001,1280,1792,2048,2048,1792,1024,768.0001,768.0001,1280,2048,3328,3840,3072,1536,768.0001,512,768.0001,1024,1536,1536,1280,1024,768.0001,512,256,0,256,512,768.0001,768.0001,768.0001,1024,1024,1024,1024,1024,1280,1536,1280,768.0001,2304,3840,4352,4096,2304,512,0,0,512,768.0001,1024,1024,1024,1024,1280,1280,768.0001,256,0,0,0,256,256,0,0,256,768.0001,1536,3328,4352,3584,1280
0,0,0,0,0,0,0,0,0,0,0,0,0,0,0,0,0,0,512,2304,3584,5120,5120,5120,5120,5120,5120,5120,5120,5120,5120,5120,5120,5120,5120,5120,5120,5120,5120,5120,5120,5120,5120,5120,5120,5120,5120,5120,5120,5120,5120,5120,5120,5120,5120,5120,5120,5120,5120,5120,5120,5120,5120,5120,5120,5120,5120,5120,5120,5120,4352,3584,2048,768.0001,1792,3840,3840,3584,3584,3584,3584,3584,3840,3840,3840,3840,3840,3840,3840,3840,3840,3840,3840,3840,3584,3840,4096,4352,4352,4352,4352,4352,4352,4352,4352,4352,4352,4352,4352,4352,4352,4352,4352,4352,4352,4352,4352,4352,4352,4352,4352,4352,4352,4352,4352,4352,4352,4352,4352,4352,4352,4352,4352,4352,4352,4352,4352,4096,4096,4096,4096,4096,4096,4096,4096,4096,4096,4096,4096,4096,4096,4096,4352,4352,4352,4352,4352,4352,4352,4352,4352,4352,4352,4352,4352,4352,4352,4352,4352,4352,4352,4352,4352,4352,4352,4352,4352,4352,4352,4352,4352,4352,4352,4352,4352,4352,4352,4352,4352,4352,4352,4352,4352,4352,4352,4352,4352,4352,4352,4352,4352,4352,4352,4352,4352,4352,4352,4352,4352,4352,4352,4352,4352,4352,4352,4352,4352,4352,4352,4352,4352,4352,4352,4352,4352,4352,4352,4352,4352,4352,4352,4352,4352,4352,4352,4352,4352,4352,4352,4352,4352,4352,4352,4352,4352,4352,4352,4352,4352,4352,4352,4352,4352,4352,4096,4352,4864,5120,5120,5120,4864,4096,3840,3584,3584,3328,3584,3328,2304,1024,512,256,512,1024,768.0001,768.0001,768.0001,1024,768.0001,768.0001,768.0001,768.0001,768.0001,768.0001,768.0001,768.0001,768.0001,768.0001,768.0001,768.0001,768.0001,768.0001,768.0001,768.0001,768.0001,768.0001,768.0001,768.0001,768.0001,768.0001,768.0001,768.0001,768.0001,768.0001,768.0001,768.0001,768.0001,768.0001,768.0001,768.0001,768.0001,768.0001,768.0001,768.0001,768.0001,768.0001,768.0001,768.0001,768.0001,768.0001,768.0001,768.0001,768.0001,768.0001,768.0001,768.0001,768.0001,768.0001,768.0001,768.0001,768.0001,768.0001,768.0001,768.0001,768.0001,768.0001,768.0001,768.0001,768.0001,768.0001,768.0001,768.0001,768.0001,768.0001,768.0001,768.0001,768.0001,768.0001,768.0001,768.0001,768.0001,768.0001,768.0001,768.0001,768.0001,768.0001,768.0001,768.0001,768.0001,768.0001,768.0001,768.0001,768.0001,768.0001,768.0001,768.0001,768.0001,768.0001,768.0001,768.0001,768.0001,768.0001,768.0001,768.0001,768.0001,768.0001,768.0001,768.0001,768.0001,768.0001,768.0001,768.0001,768.0001,768.0001,768.0001,768.0001,768.0001,768.0001,768.0001,768.0001,768.0001,768.0001,768.0001,768.0001,768.0001,768.0001,768.0001,768.0001,768.0001,768.0001,512,256,0,256,512,768.0001,1280,1536,1024,768.0001,768.0001,768.0001,768.0001,768.0001,768.0001,512,512,768.0001,768.0001,768.0001,768.0001,768.0001,768.0001,768.0001,1536,2560,2560,2560,2560,2560,3072,3328,3328,3584,4096,4352,4352,4352,4352,4352,4096,4096,4096,4352,4352,4352,4352,4352,4352,4352,4352,4352,4352,4352,4096,4096,4096,4352,4352,4352,4352,4352,4096,4096,4096,4352,4352,4352,3840,3584,4096,4864,4352,4096,4096,4352,4352,4352,4352,4352,4352,4352,4352,4352,4352,4352,4352,4352,4352,4352,4352,4352,4352,4352,4352,4352,4352,4352,4352,4352,4352,4352,4352,4352,4352,4352,4352,4352,4352,4352,4352,4352,4352,4352,4352,4352,4352,4352,4352,4352,4352,4096,4096,3840,2304,768.0001,0,0,0,1024,1536,2048,2304,2304,1792,1024,768.0001,768.0001,768.0001,1536,2560,3584,2560,1024,512,512,768.0001,1024,1536,1536,1280,768.0001,768.0001,768.0001,256,0,256,768.0001,512,768.0001,768.0001,1024,1024,1024,1024,1024,1280,1280,1024,768.0001,1792,3328,3584,3840,1536,512,0,256,512,768.0001,1024,1024,768.0001,768.0001,1024,1024,512,0,0,0,0,256,256,0,0,0,0,768.0001,3072,4352,3328,768.0001
0,0,0,0,0,0,0,0,0,0,0,0,0,0,0,0,0,0,512,2048,3584,5120,5120,5120,5120,5120,5120,5120,5120,5120,5120,5120,5120,5120,5120,5120,5120,5120,5120,5120,5120,5120,5120,5120,5120,5120,5120,5120,5120,5120,5120,5120,5120,5120,5120,5120,5120,5120,5120,5120,5120,5120,5120,5120,5120,5120,5120,5120,5120,5120,4864,3840,2048,768.0001,1792,3840,3840,3840,3840,3840,3840,3840,3840,3840,3840,3840,3840,3840,3840,3840,3840,3840,3840,3840,3584,3840,4096,4352,4352,4352,4352,4352,4352,4352,4352,4352,4352,4352,4352,4352,4352,4352,4352,4352,4352,4352,4352,4352,4352,4352,4352,4352,4352,4352,4352,4352,4352,4352,4352,4352,4352,4352,4352,4352,4352,4352,4352,4352,4352,4352,4352,4352,4352,4352,4352,4352,4352,4352,4352,4352,4352,4352,4352,4352,4352,4352,4352,4352,4352,4352,4352,4352,4352,4352,4352,4352,4352,4352,4352,4352,4352,4352,4352,4352,4352,4352,4352,4352,4352,4352,4352,4352,4352,4352,4352,4352,4352,4352,4352,4352,4352,4352,4352,4352,4352,4352,4352,4352,4352,4352,4352,4352,4352,4352,4352,4352,4352,4352,4352,4352,4352,4352,4352,4352,4352,4352,4352,4352,4352,4352,4352,4352,4352,4352,4352,4352,4352,4352,4352,4352,4352,4352,4352,4352,4352,4352,4352,4352,4352,4352,4352,4352,4352,4352,4352,4352,4352,4352,4352,4352,4352,4352,4352,4352,4096,4352,4352,4864,4864,4864,4864,4352,4096,3840,3584,3328,3584,3584,2304,1280,512,256,512,1024,1024,768.0001,1024,1280,1024,768.0001,768.0001,768.0001,768.0001,768.0001,768.0001,768.0001,768.0001,768.0001,768.0001,768.0001,768.0001,768.0001,768.0001,768.0001,768.0001,768.0001,768.0001,768.0001,768.0001,768.0001,768.0001,768.0001,768.0001,768.0001,768.0001,768.0001,768.0001,768.0001,768.0001,768.0001,768.0001,768.0001,768.0001,768.0001,768.0001,768.0001,768.0001,768.0001,768.0001,768.0001,768.0001,768.0001,768.0001,768.0001,768.0001,768.0001,768.0001,768.0001,768.0001,768.0001,768.0001,768.0001,768.0001,768.0001,768.0001,768.0001,768.0001,768.0001,768.0001,768.0001,768.0001,768.0001,768.0001,768.0001,768.0001,768.0001,768.0001,768.0001,768.0001,768.0001,768.0001,768.0001,768.0001,768.0001,768.0001,768.0001,768.0001,768.0001,768.0001,768.0001,768.0001,768.0001,768.0001,768.0001,768.0001,768.0001,768.0001,768.0001,768.0001,768.0001,768.0001,768.0001,768.0001,768.0001,768.0001,768.0001,768.0001,768.0001,768.0001,768.0001,768.0001,768.0001,768.0001,768.0001,768.0001,768.0001,768.0001,768.0001,768.0001,768.0001,768.0001,768.0001,768.0001,768.0001,768.0001,768.0001,768.0001,768.0001,768.0001,768.0001,512,256,0,256,512,768.0001,768.0001,768.0001,768.0001,768.0001,768.0001,768.0001,768.0001,768.0001,512,512,512,768.0001,768.0001,768.0001,768.0001,512,768.0001,768.0001,1792,3072,3328,3072,3072,3072,3328,3584,3584,3840,4096,4352,4352,4352,4352,4352,4352,4352,4352,4352,4352,4352,4352,3840,4352,4352,4352,4352,4352,4352,4352,4352,4352,4352,4352,4352,4352,4352,4352,4352,4352,4352,4352,4096,3584,2560,3072,3584,3840,4352,4352,4352,4096,4096,4096,4096,4096,4096,4096,4352,4352,4352,4352,4352,4352,4352,4352,4352,4352,4352,4352,4352,4352,4352,4352,4352,4352,4352,4352,4352,4352,4352,4352,4352,4352,4352,4352,4352,4352,4352,4352,4352,4352,4352,4352,4352,4352,4352,4096,3584,2304,512,0,0,256,1280,1792,2304,2304,2048,1536,1024,768.0001,768.0001,768.0001,768.0001,2048,3072,2560,1536,768.0001,512,512,1024,1280,1536,1024,768.0001,768.0001,768.0001,256,0,256,768.0001,512,768.0001,1024,1280,1280,1280,1280,1280,1024,1024,768.0001,768.0001,1024,2048,2048,2304,768.0001,256,256,512,512,768.0001,768.0001,1024,768.0001,768.0001,768.0001,768.0001,512,0,0,0,0,512,512,256,0,0,512,1024,2304,3840,2560,768.0001
0,0,0,0,0,0,0,0,0,0,0,0,0,0,0,0,0,0,512,1792,3584,4352,5120,5120,5120,5120,5120,5120,5120,5120,5120,5120,5120,5120,5120,5120,5120,5120,5120,5120,5120,5120,5120,5120,5120,5120,5120,5120,5120,5120,5120,5120,5120,5120,5120,5120,5120,5120,5120,5120,5120,5120,5120,5120,5120,5120,5120,5120,5120,5120,5120,4864,2560,1024,1536,3328,4096,4096,4352,4864,4352,4096,3840,3840,3584,3840,3840,3840,3840,3840,3840,3840,3840,3840,3584,3840,4096,4352,4352,4352,4352,4352,4352,4352,4352,4352,4352,4352,4352,4352,4352,4352,4352,4352,4352,4352,4352,4352,4352,4352,4352,4352,4352,4352,4352,4352,4352,4352,4352,4352,4352,4352,4352,4352,4096,4352,4352,4864,5120,5376,5376,5376,5376,5376,5120,4864,4864,4864,4864,4864,4864,4864,4352,4352,4096,4352,4352,4352,4352,4352,4352,4352,4352,4352,4352,4352,4352,4352,4352,4352,4352,4352,4352,4352,4352,4352,4352,4352,4352,4352,4352,4352,4352,4352,4352,4352,4352,4352,4352,4352,4352,4352,4352,4352,4352,4352,4352,4352,4352,4352,4352,4352,4352,4352,4352,4352,4352,4352,4352,4352,4352,4352,4352,4352,4352,4352,4352,4352,4352,4352,4352,4352,4352,4352,4352,4352,4352,4352,4352,4352,4352,4352,4352,4352,4352,4352,4352,4352,4352,4352,4352,4352,4352,4352,4352,4352,4352,4352,4352,4352,4352,4352,4352,4352,4352,4352,4352,4352,4352,4352,4352,4352,3840,3584,3584,3328,3584,3328,2304,1536,768.0001,512,768.0001,768.0001,768.0001,768.0001,1024,1536,1280,1024,768.0001,768.0001,768.0001,768.0001,768.0001,768.0001,768.0001,768.0001,768.0001,768.0001,768.0001,768.0001,768.0001,768.0001,768.0001,768.0001,768.0001,768.0001,768.0001,768.0001,768.0001,768.0001,768.0001,768.0001,768.0001,768.0001,768.0001,768.0001,768.0001,768.0001,768.0001,768.0001,768.0001,768.0001,768.0001,768.0001,768.0001,768.0001,768.0001,768.0001,768.0001,768.0001,768.0001,768.0001,768.0001,768.0001,768.0001,768.0001,768.0001,768.0001,768.0001,768.0001,768.0001,768.0001,768.0001,768.0001,768.0001,768.0001,768.0001,768.0001,768.0001,768.0001,768.0001,768.0001,768.0001,768.0001,768.0001,768.0001,768.0001,768.0001,768.0001,768.0001,768.0001,768.0001,768.0001,768.0001,768.0001,768.0001,768.0001,768.0001,768.0001,768.0001,768.0001,768.0001,768.0001,768.0001,768.0001,768.0001,768.0001,768.0001,768.0001,768.0001,768.0001,768.0001,768.0001,768.0001,768.0001,768.0001,768.0001,768.0001,768.0001,768.0001,768.0001,768.0001,768.0001,768.0001,768.0001,768.0001,768.0001,768.0001,768.0001,768.0001,768.0001,512,512,512,512,512,512,512,512,512,512,512,512,512,768.0001,768.0001,768.0001,768.0001,768.0001,512,512,512,512,512,512,768.0001,768.0001,768.0001,512,768.0001,512,768.0001,1792,3584,3840,3584,3584,3584,3584,3584,3840,4096,4096,4352,4352,4352,4352,4352,4352,4352,4352,4352,4352,4352,4352,4352,4352,4352,4352,4352,4096,4352,4864,4864,4864,4352,4096,4352,4096,4352,4864,4864,4864,4096,3840,3584,3072,2048,1024,1024,2560,4864,5120,4352,4096,3840,3840,3840,3840,3840,4096,4352,4352,4352,4352,4352,4352,4352,4352,4352,4352,4352,4352,4352,4352,4352,4352,4352,4352,4352,4352,4352,4352,4352,4352,4352,4352,4352,4352,4352,4352,4352,4352,4352,4352,4352,4096,4352,4864,4864,4352,3328,2048,768.0001,256,0,512,768.0001,1792,2304,2048,1792,1280,768.0001,768.0001,768.0001,512,512,1024,2048,3328,3584,1536,256,512,768.0001,1024,1280,1024,768.0001,768.0001,512,0,0,0,512,512,512,1024,1536,1536,1536,1536,1536,1024,768.0001,768.0001,512,512,512,512,256,512,256,512,512,512,512,768.0001,768.0001,1024,1024,1024,768.0001,512,0,0,0,0,512,1280,1792,1792,1536,1536,1536,1536,1792,2048,1536
0,0,0,0,0,0,0,0,0,0,0,0,0,0,0,0,0,0,512,1792,3584,4352,5120,5120,5120,5120,5120,5120,5120,5120,5120,5120,5120,5120,5120,5120,5120,5120,5120,5120,5120,5120,5120,5120,5120,5120,5120,5120,5120,5120,5120,5120,5120,5120,5120,5120,5120,5120,5120,5120,5120,5120,5120,5120,5120,5120,5120,5120,5120,5120,5376,5120,2560,768.0001,1536,3328,4096,4352,4864,5120,4864,4352,3840,3840,3584,3840,3840,3840,3840,3840,3840,3840,3840,3840,3584,3840,4096,4352,4352,4352,4352,4352,4352,4352,4352,4352,4352,4352,4352,4352,4352,4352,4352,4352,4352,4352,4352,4352,4352,4352,4352,4352,4352,4352,4352,4352,4352,4352,4352,4352,4352,4352,4352,4352,4096,4352,4864,5120,5376,5632,5632,5632,5632,5632,5376,5120,5120,5120,5120,5120,5120,5120,4864,4352,4096,4352,4352,4352,4352,4352,4352,4352,4352,4352,4352,4352,4352,4352,4352,4352,4352,4352,4352,4352,4352,4352,4352,4352,4352,4352,4352,4352,4352,4352,4352,4352,4352,4352,4352,4352,4352,4352,4352,4352,4352,4352,4352,4352,4352,4352,4352,4352,4352,4352,4352,4352,4352,4352,4352,4352,4352,4352,4352,4352,4352,4352,4352,4352,4352,4352,4352,4352,4352,4352,4352,4352,4352,4352,4352,4352,4352,4352,4352,4352,4352,4352,4352,4352,4352,4352,4352,4352,4352,4352,4352,4352,4352,4352,4352,4352,4352,4352,4352,4352,4352,4352,4352,4096,4096,4096,4352,4352,4096,3840,3840,3584,3584,3584,2560,1792,768.0001,512,768.0001,768.0001,768.0001,768.0001,1024,1536,1536,1024,768.0001,768.0001,768.0001,768.0001,768.0001,768.0001,768.0001,768.0001,768.0001,768.0001,768.0001,768.0001,768.0001,768.0001,768.0001,768.0001,768.0001,768.0001,768.0001,768.0001,768.0001,768.0001,768.0001,768.0001,768.0001,768.0001,768.0001,768.0001,768.0001,768.0001,768.0001,768.0001,768.0001,768.0001,768.0001,768.0001,768.0001,768.0001,768.0001,768.0001,768.0001,768.0001,768.0001,768.0001,768.0001,768.0001,768.0001,768.0001,768.0001,768.0001,768.0001,768.0001,768.0001,768.0001,768.0001,768.0001,768.0001,768.0001,768.0001,768.0001,768.0001,768.0001,768.0001,768.0001,768.0001,768.0001,768.0001,768.0001,768.0001,768.0001,768.0001,768.0001,768.0001,768.0001,768.0001,768.0001,768.0001,768.0001,768.0001,768.0001,768.0001,768.0001,768.0001,768.0001,768.0001,768.0001,768.0001,768.0001,768.0001,768.0001,768.0001,768.0001,768.0001,768.0001,768.0001,768.0001,768.0001,768.0001,768.0001,768.0001,768.0001,768.0001,768.0001,768.0001,768.0001,768.0001,768.0001,768.0001,768.0001,768.0001,768.0001,768.0001,512,512,512,512,512,512,512,512,512,512,512,512,512,512,512,768.0001,768.0001,768.0001,512,512,512,512,512,512,768.0001,768.0001,768.0001,768.0001,768.0001,768.0001,768.0001,1024,2048,3840,3840,3840,3840,3840,3840,3840,4096,4352,4352,4352,4352,4352,4352,4352,4352,4352,4352,4352,4352,4352,4352,4352,4352,4352,4352,4352,4096,4352,4864,4864,4864,4352,4096,4352,4096,4352,4864,4864,4352,3840,3328,3072,2048,1280,512,0,1792,4864,4864,4096,3840,3584,3328,3328,3584,3840,4096,4352,4352,4352,4352,4352,4352,4352,4352,4352,4352,4352,4352,4352,4352,4352,4352,4352,4352,4352,4352,4352,4352,4352,4352,4352,4352,4352,4352,4352,4352,4352,4352,4352,4352,4352,4096,4352,4864,5120,4352,3328,1792,768.0001,256,0,256,768.0001,1536,2048,2048,1536,1280,768.0001,768.0001,768.0001,512,256,512,1280,3072,3840,1536,0,256,768.0001,1024,1024,768.0001,768.0001,768.0001,512,0,0,0,512,512,512,1024,1536,1536,1536,1792,1536,1280,768.0001,256,0,0,0,0,0,0,256,512,512,512,512,512,768.0001,1024,1024,1024,768.0001,256,0,0,0,0,512,1792,3072,3328,3328,3072,2048,1280,768.0001,1536,1792
0,0,0,0,0,0,0,0,0,0,0,0,0,0,0,0,0,0,256,1536,3328,4352,5120,5120,5120,5120,5120,5120,5120,5120,5120,5120,5120,5120,5120,5120,5120,5120,5120,5120,5120,5120,5120,5120,5120,5120,5120,5120,5120,5120,5120,5120,5120,5120,5120,5120,5120,5120,5120,5120,5120,5120,5120,5120,5120,5120,5120,5120,5120,5120,5376,5120,2304,768.0001,1280,3328,4096,4352,4864,5120,4864,4352,3840,3840,3584,3840,3840,3840,3840,3840,3840,3840,3840,3840,3584,3840,4096,4352,4352,4352,4352,4352,4352,4352,4352,4352,4352,4352,4352,4352,4352,4352,4352,4352,4352,4352,4352,4352,4352,4352,4352,4352,4352,4352,4352,4352,4352,4352,4352,4352,4352,4352,4352,4352,4096,4352,4864,5120,5376,5632,5632,5632,5632,5632,5376,5120,4864,5120,5120,5120,5120,5120,4864,4352,4096,4352,4352,4352,4352,4352,4352,4352,4352,4352,4352,4352,4352,4352,4352,4352,4352,4352,4352,4352,4352,4352,4352,4352,4352,4352,4352,4352,4352,4352,4352,4352,4352,4352,4352,4352,4352,4352,4352,4352,4352,4352,4352,4352,4352,4352,4352,4352,4352,4352,4352,4352,4352,4352,4352,4352,4352,4352,4352,4352,4352,4352,4352,4352,4352,4352,4352,4352,4352,4352,4352,4352,4352,4352,4352,4352,4352,4352,4352,4352,4352,4352,4352,4352,4352,4352,4352,4352,4352,4352,4352,4352,4352,4352,4352,4352,4352,4352,4352,4352,4352,4352,4352,4352,4352,4352,4352,4352,4096,4096,4096,3840,3840,3840,3072,1792,768.0001,512,768.0001,1024,1024,768.0001,768.0001,1280,1280,1024,768.0001,768.0001,768.0001,768.0001,768.0001,768.0001,768.0001,768.0001,768.0001,768.0001,768.0001,768.0001,768.0001,768.0001,768.0001,768.0001,768.0001,768.0001,768.0001,768.0001,768.0001,768.0001,768.0001,768.0001,768.0001,768.0001,768.0001,768.0001,768.0001,768.0001,768.0001,768.0001,768.0001,768.0001,768.0001,768.0001,768.0001,768.0001,768.0001,768.0001,768.0001,768.0001,768.0001,768.0001,768.0001,768.0001,768.0001,768.0001,768.0001,768.0001,768.0001,768.0001,768.0001,768.0001,768.0001,768.0001,768.0001,768.0001,768.0001,768.0001,768.0001,768.0001,768.0001,768.0001,768.0001,768.0001,768.0001,768.0001,768.0001,768.0001,768.0001,768.0001,768.0001,768.0001,768.0001,768.0001,768.0001,768.0001,768.0001,768.0001,768.0001,768.0001,768.0001,768.0001,768.0001,768.0001,768.0001,768.0001,768.0001,768.0001,768.0001,768.0001,768.0001,768.0001,768.0001,768.0001,768.0001,768.0001,768.0001,768.0001,768.0001,768.0001,768.0001,768.0001,768.0001,768.0001,768.0001,768.0001,768.0001,768.0001,768.0001,768.0001,512,512,512,512,512,512,512,512,512,512,512,512,512,512,512,512,512,512,512,512,512,512,512,512,768.0001,1024,1024,1024,1280,1280,1280,2048,3072,3584,4096,4096,4096,4096,4096,4096,4096,4352,4352,4352,4352,4352,4352,4352,4352,4352,4352,4352,4352,4352,4352,4352,4352,4352,4352,4352,4352,4352,4352,4352,4352,4352,4352,4352,4352,4352,4352,4352,4096,3072,2304,2048,1280,768.0001,0,0,1280,4096,4096,3328,3072,2560,2304,2304,3328,4096,4352,4352,4352,4352,4352,4352,4352,4352,4352,4352,4352,4352,4352,4352,4352,4352,4352,4352,4352,4352,4352,4352,4352,4352,4352,4352,4352,4352,4352,4352,4352,4352,4352,4352,4352,4352,4096,4352,4864,5120,4352,3328,1792,512,0,0,0,768.0001,1280,1792,1792,1536,1536,1280,1280,1024,512,0,256,768.0001,1792,2560,1280,0,256,768.0001,1024,1024,768.0001,768.0001,768.0001,768.0001,0,0,0,768.0001,512,768.0001,1024,1280,1536,1536,1792,1536,1280,768.0001,0,0,0,0,0,0,0,0,512,512,512,512,512,768.0001,1024,1024,1024,768.0001,512,0,0,0,0,768.0001,1536,3072,3840,4096,3584,2304,1536,1024,1536,1792
0,0,0,0,0,0,0,0,0,0,0,0,0,0,0,0,0,0,0,1280,3328,4352,5120,5120,5120,5120,5120,5120,5120,5120,5120,5120,5120,5120,5120,5120,5120,5120,5120,5120,5120,5120,5120,5120,5120,5120,5120,5120,5120,5120,5120,5120,5120,5120,5120,5120,5120,5120,5120,5120,5120,5120,5120,5120,5120,5120,5120,5120,5120,5120,5376,5120,2304,512,1280,3328,4096,4352,4864,5120,4864,4352,3840,3840,3584,3840,3840,3840,3840,3840,3840,3840,3840,3840,3584,3840,4096,4352,4352,4352,4352,4352,4352,4352,4352,4352,4352,4352,4352,4352,4352,4352,4352,4352,4352,4352,4352,4352,4352,4352,4352,4352,4352,4352,4352,4352,4352,4352,4352,4352,4352,4352,4352,4352,4096,4352,4352,4864,5120,5120,5376,5376,5376,5376,5120,5120,4864,5120,5120,5120,5120,5120,4864,4352,4096,4352,4352,4352,4352,4352,4352,4352,4352,4352,4352,4352,4352,4352,4352,4352,4352,4352,4352,4352,4352,4352,4352,4352,4352,4352,4352,4352,4352,4352,4352,4352,4352,4352,4352,4352,4352,4352,4352,4352,4352,4352,4352,4352,4352,4352,4352,4352,4352,4352,4352,4352,4352,4352,4352,4352,4352,4352,4352,4352,4352,4352,4352,4352,4352,4352,4352,4352,4352,4352,4352,4352,4352,4352,4352,4352,4352,4352,4352,4352,4352,4352,4352,4352,4352,4352,4352,4352,4352,4352,4352,4352,4352,4352,4352,4352,4352,4352,4352,4352,4352,4352,4352,4352,4352,4352,4352,4352,4352,4352,4352,4096,4096,4096,3584,2560,1024,256,512,768.0001,768.0001,768.0001,768.0001,1024,1024,1024,768.0001,768.0001,768.0001,768.0001,768.0001,768.0001,768.0001,768.0001,768.0001,768.0001,768.0001,768.0001,768.0001,768.0001,768.0001,768.0001,768.0001,768.0001,768.0001,768.0001,768.0001,768.0001,768.0001,768.0001,768.0001,768.0001,768.0001,768.0001,768.0001,768.0001,768.0001,768.0001,768.0001,768.0001,768.0001,768.0001,768.0001,768.0001,768.0001,768.0001,768.0001,768.0001,768.0001,768.0001,768.0001,768.0001,768.0001,768.0001,768.0001,768.0001,768.0001,768.0001,768.0001,768.0001,768.0001,768.0001,768.0001,768.0001,768.0001,768.0001,768.0001,768.0001,768.0001,768.0001,768.0001,768.0001,768.0001,768.0001,768.0001,768.0001,768.0001,768.0001,768.0001,768.0001,768.0001,768.0001,768.0001,768.0001,768.0001,768.0001,768.0001,768.0001,768.0001,768.0001,768.0001,768.0001,768.0001,768.0001,768.0001,768.0001,768.0001,768.0001,768.0001,768.0001,768.0001,768.0001,768.0001,768.0001,768.0001,768.0001,768.0001,768.0001,768.0001,768.0001,768.0001,768.0001,768.0001,768.0001,768.0001,768.0001,768.0001,768.0001,512,512,512,512,512,512,512,512,512,512,512,512,512,512,512,512,512,512,512,512,512,512,512,512,1024,1792,1792,2048,2048,2048,2560,3072,3328,3840,4096,4352,4352,4352,4352,4352,4352,4352,4352,4352,4352,4352,4352,4352,4352,4352,4352,4352,4352,4352,4352,4352,4352,4352,4352,4352,4352,4352,4096,4096,4096,4352,4352,4352,4352,4352,4096,4096,3584,2560,2048,1536,1024,768.0001,256,0,1280,3584,3584,3072,2560,2304,1792,1792,3072,4352,4352,4352,4352,4352,4352,4352,4352,4352,4352,4352,4352,4352,4352,4352,4352,4352,4352,4352,4352,4352,4352,4352,4352,4352,4352,4352,4352,4352,4352,4352,4352,4352,4352,4352,4352,4352,4096,4352,4864,5120,4352,3328,1536,512,0,0,0,512,1280,1536,1536,1536,1792,1792,1536,1280,512,0,0,0,768.0001,1792,768.0001,0,512,768.0001,1024,1024,768.0001,768.0001,768.0001,768.0001,0,0,0,768.0001,768.0001,512,768.0001,1280,1536,1536,1792,1536,1280,768.0001,0,0,0,0,0,0,0,0,256,512,512,512,512,768.0001,1024,1024,1024,768.0001,512,0,0,0,256,768.0001,1792,2560,3840,4096,3584,2304,1280,768.0001,1280,1280
0,0,0,0,0,0,0,0,0,0,0,0,0,0,0,0,0,0,0,1280,3328,4352,5120,5120,5120,5120,5120,5120,5120,5120,5120,5120,5120,5120,5120,5120,5120,5120,5120,5120,5120,5120,5120,5120,5120,5120,5120,5120,5120,5120,5120,5120,5120,5120,5120,5120,5120,5120,5120,5120,5120,5120,5120,5120,5120,5120,5120,5120,5120,5120,5376,5120,2304,512,1280,3328,4096,4352,4864,5120,4864,4352,3840,3840,3584,3840,3840,3840,3840,3840,3840,3840,3840,3840,3584,3840,4096,4352,4352,4352,4352,4352,4352,4352,4352,4352,4352,4352,4352,4352,4352,4352,4352,4352,4352,4352,4352,4352,4352,4352,4352,4352,4352,4352,4352,4352,4352,4352,4352,4352,4352,4352,4352,4352,4352,4352,4096,4096,4096,4096,4864,5120,5120,5120,5120,5120,5120,5120,5120,5120,5120,5120,4864,4352,4096,4352,4352,4352,4352,4352,4352,4352,4352,4352,4352,4352,4352,4352,4352,4352,4352,4352,4352,4352,4352,4352,4352,4352,4352,4352,4352,4352,4352,4352,4352,4352,4352,4352,4352,4352,4352,4352,4352,4352,4352,4352,4352,4352,4352,4352,4352,4352,4352,4352,4352,4352,4352,4352,4352,4352,4352,4352,4352,4352,4352,4352,4352,4352,4352,4352,4352,4352,4352,4352,4352,4352,4352,4352,4352,4352,4352,4352,4352,4352,4352,4352,4352,4352,4352,4352,4352,4352,4352,4352,4352,4352,4352,4352,4352,4352,4352,4352,4352,4352,4352,4352,4352,4352,4352,4352,4352,4352,4352,4352,4352,3840,3840,3840,4352,4096,1536,0,0,512,768.0001,768.0001,768.0001,1024,1280,1024,768.0001,768.0001,768.0001,768.0001,768.0001,768.0001,768.0001,768.0001,768.0001,768.0001,768.0001,768.0001,768.0001,768.0001,768.0001,768.0001,768.0001,768.0001,768.0001,768.0001,768.0001,768.0001,768.0001,768.0001,768.0001,768.0001,768.0001,768.0001,768.0001,768.0001,768.0001,768.0001,768.0001,768.0001,768.0001,768.0001,768.0001,768.0001,768.0001,768.0001,768.0001,768.0001,768.0001,768.0001,768.0001,768.0001,768.0001,768.0001,768.0001,768.0001,768.0001,768.0001,768.0001,768.0001,768.0001,768.0001,768.0001,768.0001,768.0001,768.0001,768.0001,768.0001,768.0001,768.0001,768.0001,768.0001,768.0001,768.0001,768.0001,768.0001,768.0001,768.0001,768.0001,768.0001,768.0001,768.0001,768.0001,768.0001,768.0001,768.0001,768.0001,768.0001,768.0001,768.0001,768.0001,768.0001,768.0001,768.0001,768.0001,768.0001,768.0001,768.0001,768.0001,768.0001,768.0001,768.0001,768.0001,768.0001,768.0001,768.0001,768.0001,768.0001,768.0001,768.0001,768.0001,768.0001,768.0001,768.0001,768.0001,768.0001,768.0001,768.0001,512,512,512,512,512,512,512,512,512,512,512,512,512,512,512,512,512,512,512,512,512,512,256,512,1280,2560,2560,3072,3072,3328,3328,3328,3840,4096,4352,4352,4352,4352,4352,4352,4352,4352,4352,4352,4352,4352,4352,4352,4352,4352,4352,4352,4352,4352,4352,4352,4352,4352,4352,4352,4352,4352,4352,4352,4352,4352,4352,4352,4352,4352,4096,3840,3584,2560,2304,1792,1536,1280,768.0001,768.0001,1792,3072,3328,3072,2560,2304,1792,1792,3072,4352,4352,4352,4352,4352,4352,4352,4352,4352,4352,4352,4352,4352,4352,4352,4352,4352,4352,4352,4352,4352,4352,4352,4352,4352,4352,4352,4352,4352,4352,4352,4352,4352,4352,4352,4352,4352,4096,4352,4864,5120,4352,3328,1536,512,0,0,0,512,1280,1536,1792,1536,1536,1792,1792,1536,512,0,0,0,512,1024,512,0,512,768.0001,1024,1024,768.0001,768.0001,768.0001,768.0001,0,0,0,1024,512,0,768.0001,1536,1536,1536,1792,1536,1280,768.0001,0,0,0,0,0,0,0,0,512,512,512,512,512,768.0001,1024,1024,1024,768.0001,512,0,0,0,512,1280,2048,2560,3328,3328,3072,2304,1536,768.0001,768.0001,512
0,0,0,0,0,0,0,0,0,0,0,0,0,0,0,0,0,0,256,1280,3328,4352,5120,5120,5120,5120,5120,5120,5120,5120,5120,5120,5120,5120,5120,5120,5120,5120,5120,5120,5120,5120,5120,5120,5120,5120,5120,5120,5120,5120,5120,5120,5120,5120,5120,5120,5120,5120,5120,5120,5120,5120,5120,5120,5120,5120,5120,5120,5120,5120,5376,5120,2304,512,1280,3584,4096,4352,4864,5120,4864,4352,3840,3840,3584,3840,3840,3840,3840,3840,3840,3840,3840,3840,3584,3840,4096,4352,4352,4352,4352,4352,4352,4352,4352,4352,4352,4352,4352,4352,4352,4352,4352,4352,4352,4352,4352,4352,4352,4352,4352,4352,4352,4352,4352,4352,4352,4352,4352,4352,4352,4352,4352,4352,4096,4096,3840,3328,3328,3328,3840,4864,4864,4864,4864,5120,5120,5120,5120,5120,5120,5120,4864,4352,4096,4352,4352,4352,4352,4352,4352,4352,4352,4352,4352,4352,4352,4352,4352,4352,4352,4352,4352,4352,4352,4352,4352,4352,4352,4352,4352,4352,4352,4352,4352,4352,4352,4352,4352,4352,4352,4352,4352,4352,4352,4352,4352,4352,4352,4352,4352,4352,4352,4352,4352,4352,4352,4352,4352,4352,4352,4352,4352,4352,4352,4352,4352,4352,4352,4352,4352,4352,4352,4352,4352,4352,4352,4352,4352,4352,4352,4352,4352,4352,4352,4352,4352,4352,4352,4352,4352,4096,4096,4096,4096,4096,4352,4352,4352,4352,4352,4352,4352,4352,4352,4352,4352,4352,4352,4352,4352,4352,4352,4352,4352,3840,3840,3840,4864,4864,1536,0,0,0,512,768.0001,1024,1024,1280,1024,768.0001,768.0001,768.0001,768.0001,768.0001,768.0001,768.0001,768.0001,768.0001,768.0001,768.0001,768.0001,768.0001,768.0001,768.0001,768.0001,768.0001,768.0001,768.0001,768.0001,768.0001,768.0001,768.0001,768.0001,768.0001,768.0001,768.0001,768.0001,768.0001,768.0001,768.0001,768.0001,768.0001,768.0001,768.0001,768.0001,768.0001,768.0001,768.0001,768.0001,768.0001,768.0001,768.0001,768.0001,768.0001,768.0001,768.0001,768.0001,768.0001,768.0001,768.0001,768.0001,768.0001,768.0001,768.0001,768.0001,768.0001,768.0001,768.0001,768.0001,768.0001,768.0001,768.0001,768.0001,768.0001,768.0001,768.0001,768.0001,768.0001,768.0001,768.0001,768.0001,768.0001,768.0001,768.0001,768.0001,768.0001,768.0001,768.0001,768.0001,768.0001,768.0001,768.0001,768.0001,768.0001,768.0001,768.0001,768.0001,768.0001,768.0001,768.0001,768.0001,768.0001,768.0001,768.0001,768.0001,768.0001,768.0001,768.0001,768.0001,768.0001,768.0001,768.0001,768.0001,768.0001,768.0001,768.0001,768.0001,768.0001,768.0001,768.0001,768.0001,512,512,512,512,512,512,512,512,512,512,512,512,512,512,512,512,512,512,512,512,512,256,0,256,1536,3584,3840,3584,4096,4096,4096,4096,4096,4352,4352,4352,4352,4352,4352,4352,4352,4352,4352,4352,4352,4352,4352,4352,4352,4352,4352,4352,4352,4352,4352,4352,4352,4352,4352,4352,4352,4352,4352,4352,4352,4352,4352,4352,4352,4352,4096,3840,3584,3072,3072,2560,2304,2304,2304,2304,3072,3584,3584,3328,3328,2560,2304,2304,3328,4096,4352,4352,4352,4352,4352,4352,4352,4352,4352,4352,4352,4352,4352,4352,4352,4352,4352,4352,4352,4352,4352,4352,4352,4352,4352,4352,4352,4352,4352,4352,4352,4352,4352,4352,4352,4352,4096,4352,4864,5120,4352,3328,1536,512,0,0,0,512,1280,1536,1792,1536,1536,1536,1792,1536,512,0,0,0,0,512,512,256,512,768.0001,1024,1024,768.0001,768.0001,768.0001,768.0001,0,0,256,1280,512,0,768.0001,1536,1792,1536,1792,1536,1280,768.0001,0,0,0,0,0,0,0,0,0,256,512,512,512,768.0001,768.0001,1024,768.0001,768.0001,512,0,0,0,768.0001,2048,2304,2304,2560,2048,2048,1536,768.0001,512,512,256
0,0,0,0,0,0,0,0,0,0,0,0,0,0,0,0,0,0,256,1024,3072,4352,5120,5120,5120,5120,5120,5120,5120,5120,5120,5120,5120,5120,5120,5120,5120,5120,5120,5120,5120,5120,5120,5120,5120,5120,5120,5120,5120,5120,5120,5120,5120,5120,5120,5120,5120,5120,5120,5120,5120,5120,5120,5120,5120,5120,5120,5120,5120,5120,5376,5120,2304,512,1280,3584,4096,4352,4864,5120,4864,4352,3840,3840,3584,3840,3840,3840,3840,3840,3840,3840,3840,3840,3584,3840,4096,4352,4352,4352,4352,4352,4352,4352,4352,4352,4352,4352,4352,4352,4352,4352,4352,4352,4352,4352,4352,4352,4352,4352,4352,4352,4352,4352,4352,4352,4352,4352,4352,4352,4352,4352,4352,4352,4096,3840,3328,2560,2304,2560,3328,3840,4096,4352,4864,5120,5120,5120,5120,5120,5120,5120,4864,4352,4096,4352,4352,4352,4352,4352,4352,4352,4352,4352,4352,4352,4352,4352,4352,4352,4352,4352,4352,4352,4352,4352,4352,4352,4352,4352,4352,4352,4352,4352,4352,4352,4352,4352,4352,4352,4352,4352,4352,4352,4352,4352,4352,4352,4352,4352,4352,4352,4352,4352,4352,4352,4352,4352,4352,4352,4352,4352,4352,4352,4352,4352,4352,4352,4352,4352,4352,4352,4352,4352,4352,4352,4352,4352,4352,4352,4352,4352,4352,4352,4352,4352,4352,4352,4352,4352,4096,4096,4096,4096,4096,4096,4096,4096,4096,4096,4352,4352,4352,4352,4352,4352,4352,4352,4352,4352,4352,4352,4352,4352,4352,4096,3840,3840,4864,4864,1536,0,0,0,512,768.0001,1024,1024,1280,1024,768.0001,768.0001,768.0001,768.0001,768.0001,768.0001,768.0001,768.0001,768.0001,768.0001,768.0001,768.0001,768.0001,768.0001,768.0001,768.0001,768.0001,768.0001,768.0001,768.0001,768.0001,768.0001,768.0001,768.0001,768.0001,768.0001,768.0001,768.0001,768.0001,768.0001,768.0001,768.0001,768.0001,768.0001,768.0001,768.0001,768.0001,768.0001,768.0001,768.0001,768.0001,768.0001,768.0001,768.0001,768.0001,768.0001,768.0001,768.0001,768.0001,768.0001,768.0001,768.0001,768.0001,768.0001,768.0001,768.0001,768.0001,768.0001,768.0001,768.0001,768.0001,768.0001,768.0001,768.0001,768.0001,768.0001,768.0001,768.0001,768.0001,768.0001,768.0001,768.0001,768.0001,768.0001,768.0001,768.0001,768.0001,768.0001,768.0001,768.0001,768.0001,768.0001,768.0001,768.0001,768.0001,768.0001,768.0001,768.0001,768.0001,768.0001,768.0001,768.0001,768.0001,768.0001,768.0001,768.0001,768.0001,768.0001,768.0001,768.0001,768.0001,768.0001,768.0001,768.0001,768.0001,768.0001,768.0001,768.0001,768.0001,768.0001,768.0001,768.0001,512,512,512,512,512,512,512,512,512,512,512,512,512,512,512,512,512,256,256,256,256,256,0,256,1792,3840,4096,4096,4352,4864,4864,4864,4352,4352,4096,4352,4352,4352,4352,4352,4352,4352,4352,4352,4352,4352,4352,4352,4352,4352,4352,4352,4352,4352,4352,4352,4352,4352,4352,4352,4352,4352,4352,4352,4352,4352,4352,4352,4352,4352,4096,4096,4096,3840,3584,3584,3840,3840,4096,4096,4096,4864,4352,4096,3840,3584,3328,3328,3584,3840,4096,4096,4352,4096,4096,4096,4352,4352,4352,4352,4352,4352,4352,4352,4352,4352,4352,4352,4352,4352,4352,4352,4352,4352,4352,4352,4352,4352,4352,4352,4352,4352,4352,4352,4352,4352,4096,4352,4864,5120,4352,3328,1536,512,0,0,0,768.0001,1280,1536,1792,1536,1280,1280,1280,1280,512,0,0,0,0,512,512,512,512,768.0001,1024,1024,768.0001,768.0001,768.0001,768.0001,0,0,512,1536,512,0,768.0001,1536,2048,1536,1792,1536,1280,768.0001,0,0,0,0,0,0,0,0,0,0,256,512,512,768.0001,768.0001,768.0001,768.0001,512,256,0,0,256,1280,2560,2560,2048,1536,768.0001,768.0001,512,0,0,512,512
0,0,0,0,0,0,0,0,0,0,0,0,0,0,0,0,0,0,0,768.0001,3072,4352,5120,5120,5120,5120,5120,5120,5120,5120,5120,5120,5120,5120,5120,5120,5120,5120,5120,5120,5120,5120,5120,5120,5120,5120,5120,5120,5120,5120,5120,5120,5120,5120,5120,5120,5120,5120,5120,5120,5120,5120,5120,5120,5120,5120,5120,5120,5120,5120,5120,5120,2560,768.0001,1280,3328,3840,4096,4352,4864,4352,4352,3840,3840,3584,3840,3840,3840,3840,3840,3840,3840,3840,3840,3584,3840,3840,4096,4096,4096,4096,4352,4096,4096,4096,4096,4096,4096,4096,4096,4096,4096,4096,4096,4096,4096,4096,4096,4096,4096,4096,4352,4352,4352,4352,4352,4352,4352,4352,4352,4352,4352,4352,4352,4096,3840,3328,2304,2304,2304,3072,3840,3840,4096,4352,4864,4864,4864,4864,4864,4864,4864,4352,4352,4096,4352,4352,4352,4352,4352,4352,4352,4352,4352,4352,4352,4352,4352,4352,4352,4352,4352,4352,4352,4352,4352,4352,4352,4352,4352,4352,4352,4352,4352,4352,4352,4352,4352,4352,4352,4352,4352,4352,4352,4352,4352,4352,4352,4352,4352,4352,4352,4352,4352,4352,4352,4352,4352,4352,4352,4352,4352,4352,4352,4352,4352,4352,4352,4352,4352,4352,4352,4352,4352,4352,4352,4352,4352,4352,4352,4352,4352,4352,4352,4352,4352,4352,4352,4096,4352,4352,4864,4864,4864,4864,4864,4864,4864,4352,4352,4352,4352,4352,4352,4352,4352,4352,4352,4352,4352,4352,4352,4352,4352,4096,3840,3840,3840,4352,4096,1792,0,0,0,256,768.0001,768.0001,1024,1024,1024,768.0001,768.0001,768.0001,768.0001,768.0001,768.0001,768.0001,768.0001,768.0001,768.0001,768.0001,768.0001,768.0001,768.0001,768.0001,768.0001,768.0001,768.0001,768.0001,768.0001,768.0001,768.0001,768.0001,768.0001,768.0001,768.0001,768.0001,768.0001,768.0001,768.0001,768.0001,768.0001,768.0001,768.0001,768.0001,768.0001,768.0001,768.0001,768.0001,768.0001,768.0001,768.0001,768.0001,768.0001,768.0001,768.0001,768.0001,768.0001,768.0001,768.0001,768.0001,768.0001,768.0001,768.0001,768.0001,768.0001,768.0001,768.0001,768.0001,768.0001,768.0001,768.0001,768.0001,768.0001,768.0001,768.0001,768.0001,768.0001,768.0001,768.0001,768.0001,768.0001,768.0001,768.0001,768.0001,768.0001,768.0001,768.0001,768.0001,768.0001,768.0001,768.0001,768.0001,768.0001,768.0001,768.0001,768.0001,768.0001,768.0001,768.0001,768.0001,768.0001,768.0001,768.0001,768.0001,768.0001,768.0001,768.0001,768.0001,768.0001,768.0001,768.0001,768.0001,768.0001,768.0001,768.0001,768.0001,768.0001,768.0001,768.0001,768.0001,768.0001,512,512,512,512,512,512,512,512,512,512,512,512,512,512,512,512,256,0,0,0,0,256,256,512,2048,3840,4096,4096,4352,4864,5120,4864,4864,4352,4096,4352,4352,4352,4352,4352,4352,4352,4352,4352,4352,4352,4352,4352,4352,4352,4352,4352,4352,4352,4352,4352,4352,4352,4352,4352,4352,4352,4352,4352,4352,4352,4352,4352,4352,4352,4352,4352,4352,4096,4096,4096,4352,4864,4864,4864,4864,4864,4352,4096,4096,3840,3840,3840,3840,3840,4096,4352,4352,4352,4352,4352,4352,4352,4352,4352,4352,4352,4352,4352,4352,4352,4352,4352,4352,4352,4352,4352,4352,4352,4352,4352,4352,4352,4352,4352,4352,4352,4352,4352,4352,4352,4096,4352,4864,5120,4352,3328,1536,512,0,0,0,512,1024,1536,1792,1792,1536,1024,1024,1024,512,0,0,0,0,512,512,512,768.0001,768.0001,1024,1024,1024,768.0001,768.0001,768.0001,256,0,256,1536,768.0001,0,768.0001,1792,2048,1536,1536,1536,1024,768.0001,0,0,0,0,0,0,0,0,0,0,0,512,768.0001,768.0001,768.0001,768.0001,512,512,256,0,0,256,1536,3072,3072,3072,2048,768.0001,768.0001,512,512,512,512,768.0001
0,0,0,0,0,0,0,0,0,0,0,0,0,0,0,0,0,0,0,768.0001,2560,4352,5120,5120,5120,5120,5120,5120,5120,5120,5120,5120,5120,5120,5120,5120,5120,5120,5120,5120,5120,5120,5120,5120,5120,5120,5120,5120,5120,5120,5120,5120,5120,5120,5120,5120,5120,5120,5120,5120,5120,5120,5120,5120,5120,5120,5120,5120,5120,5120,5120,5120,3328,1536,1536,2304,3328,3840,3840,3840,4096,4352,4096,3840,3584,3840,3840,3840,3840,3840,3840,3840,3840,3840,3840,3840,3840,3840,3840,3840,4096,4352,4096,3840,3840,3840,3840,3840,3840,3840,3840,3840,3840,3840,3840,3840,3840,3840,3840,3840,4096,4352,4352,4352,4352,4352,4352,4352,4352,4352,4352,4352,4352,4352,4096,4096,4096,3840,3840,3840,4096,4096,4096,3840,3840,3840,3840,3840,3840,3840,3840,3840,4096,4352,4352,4352,4352,4352,4352,4352,4352,4352,4352,4352,4352,4352,4352,4352,4352,4352,4352,4352,4352,4352,4352,4352,4352,4352,4352,4352,4352,4352,4352,4352,4352,4352,4352,4352,4352,4352,4352,4352,4352,4352,4352,4352,4352,4352,4352,4352,4352,4352,4352,4352,4352,4352,4352,4352,4352,4352,4352,4352,4352,4352,4352,4352,4352,4352,4352,4352,4352,4352,4352,4352,4352,4352,4352,4352,4352,4352,4352,4352,4352,4352,4352,4352,4352,4352,4096,4352,5120,5888,5888,5888,5888,5888,5632,5376,5120,4864,4352,4352,4096,4352,4352,4352,4352,4352,4352,4352,4352,4352,4352,4352,4096,3840,4096,4352,4096,3584,2048,768.0001,256,0,256,768.0001,768.0001,768.0001,1024,1024,768.0001,768.0001,768.0001,768.0001,768.0001,768.0001,768.0001,768.0001,768.0001,768.0001,768.0001,768.0001,768.0001,768.0001,768.0001,768.0001,768.0001,768.0001,768.0001,768.0001,768.0001,768.0001,768.0001,768.0001,768.0001,768.0001,768.0001,768.0001,768.0001,768.0001,768.0001,768.0001,768.0001,768.0001,768.0001,768.0001,768.0001,768.0001,768.0001,768.0001,768.0001,768.0001,768.0001,768.0001,768.0001,768.0001,768.0001,768.0001,768.0001,768.0001,768.0001,768.0001,768.0001,768.0001,768.0001,768.0001,768.0001,768.0001,768.0001,768.0001,768.0001,768.0001,768.0001,768.0001,768.0001,768.0001,768.0001,768.0001,768.0001,768.0001,768.0001,768.0001,768.0001,768.0001,768.0001,768.0001,768.0001,768.0001,768.0001,768.0001,768.0001,768.0001,768.0001,768.0001,768.0001,768.0001,768.0001,768.0001,768.0001,768.0001,768.0001,768.0001,768.0001,768.0001,768.0001,768.0001,768.0001,768.0001,768.0001,768.0001,768.0001,768.0001,768.0001,768.0001,768.0001,768.0001,768.0001,768.0001,768.0001,768.0001,768.0001,768.0001,512,512,512,512,512,512,512,512,512,256,256,256,256,256,256,0,0,0,0,0,0,0,512,1280,2304,3840,3840,3840,4096,4352,4352,4352,4352,4352,4352,4352,4352,4352,4352,4352,4352,4352,4352,4352,4352,4352,4352,4352,4352,4352,4352,4352,4352,4352,4352,4352,4352,4352,4352,4352,4352,4352,4352,4352,4352,4352,4352,4352,4352,4352,4352,4352,4352,4352,4352,4352,4352,4352,4352,4352,4096,4096,3840,3840,3840,3840,3584,3840,4096,4864,4864,4864,4864,4864,4864,4864,4352,4352,4096,4352,4352,4352,4352,4352,4352,4352,4352,4352,4352,4352,4352,4352,4352,4352,4352,4352,4352,4352,4352,4352,4352,4352,4352,4352,4352,4352,4096,4352,4864,5120,4352,3328,1536,512,0,0,0,0,768.0001,1280,1792,2048,1536,1024,768.0001,768.0001,512,256,0,0,0,512,512,768.0001,768.0001,1024,1024,1024,1024,1024,1024,768.0001,0,0,256,1280,768.0001,0,768.0001,2048,2304,1536,1536,1280,768.0001,512,0,0,0,0,0,0,0,0,0,0,0,256,768.0001,768.0001,512,512,512,768.0001,512,0,0,256,1024,3072,3840,3840,3328,2560,2048,2048,1792,2048,2048,2048
0,0,0,0,0,0,0,0,0,0,0,0,0,0,0,0,0,0,0,512,2304,4352,5120,5120,5120,5120,5120,5120,5120,5120,5120,5120,5120,5120,5120,5120,5120,5120,5120,5120,5120,5120,5120,5120,5120,5120,5120,5120,5120,5120,5120,5120,5120,5120,5120,5120,5120,5120,5120,5120,5120,5120,5120,5120,5120,5120,5120,5120,5120,5120,5120,5120,3584,2048,1792,2048,3072,3584,3584,3584,4096,4352,4096,3840,3584,3840,3840,3840,3840,3840,3840,3840,3840,3840,3840,3840,3840,3584,3584,3584,3840,4096,3840,3584,3584,3584,3584,3584,3584,3584,3584,3584,3584,3584,3584,3584,3584,3584,3584,3584,4096,4352,4352,4352,4352,4352,4352,4352,4352,4352,4352,4352,4352,4352,4352,4352,4352,4352,4352,4352,4352,4352,4096,3584,3584,3584,3584,3584,3584,3584,3584,3584,3840,4352,4352,4352,4352,4352,4352,4352,4352,4352,4352,4352,4352,4352,4352,4352,4352,4352,4352,4352,4352,4352,4352,4352,4352,4352,4352,4352,4352,4352,4352,4352,4352,4352,4352,4352,4352,4352,4352,4352,4352,4352,4352,4352,4352,4352,4352,4352,4352,4352,4352,4352,4352,4352,4352,4352,4352,4352,4352,4352,4352,4352,4352,4352,4352,4352,4352,4352,4352,4352,4352,4352,4352,4352,4352,4352,4352,4352,4352,4352,4352,4352,4352,4352,4352,4352,4096,4352,5120,5888,5888,5888,5888,5888,5632,5376,5120,4864,4352,4352,4096,4352,4352,4352,4352,4352,4352,4352,4352,4352,4352,4352,3840,3584,4096,4352,3840,3072,2304,1536,768.0001,0,256,768.0001,768.0001,768.0001,768.0001,1024,768.0001,768.0001,768.0001,768.0001,768.0001,768.0001,768.0001,768.0001,768.0001,768.0001,768.0001,768.0001,768.0001,768.0001,768.0001,768.0001,768.0001,768.0001,768.0001,768.0001,768.0001,768.0001,768.0001,768.0001,768.0001,768.0001,768.0001,768.0001,768.0001,768.0001,768.0001,768.0001,768.0001,768.0001,768.0001,768.0001,768.0001,768.0001,768.0001,768.0001,768.0001,768.0001,768.0001,768.0001,768.0001,768.0001,768.0001,768.0001,768.0001,768.0001,768.0001,768.0001,768.0001,768.0001,768.0001,768.0001,768.0001,768.0001,768.0001,768.0001,768.0001,768.0001,768.0001,768.0001,768.0001,768.0001,768.0001,768.0001,768.0001,768.0001,768.0001,768.0001,768.0001,768.0001,768.0001,768.0001,768.0001,768.0001,768.0001,768.0001,768.0001,768.0001,768.0001,768.0001,768.0001,768.0001,768.0001,768.0001,768.0001,768.0001,768.0001,768.0001,768.0001,768.0001,768.0001,768.0001,768.0001,768.0001,768.0001,768.0001,768.0001,768.0001,768.0001,768.0001,768.0001,768.0001,768.0001,768.0001,768.0001,768.0001,768.0001,768.0001,512,512,512,512,512,512,512,512,512,256,256,256,256,256,0,0,0,0,0,0,0,0,768.0001,2048,3072,3584,3840,3584,3840,4096,4352,4096,4352,4352,4352,4352,4352,4352,4352,4352,4352,4352,4352,4352,4352,4352,4352,4352,4352,4352,4352,4352,4352,4352,4352,4352,4352,4352,4352,4352,4352,4352,4352,4352,4352,4352,4352,4352,4352,4352,4352,4352,4352,4352,4352,4352,4352,4096,4352,4096,3840,3584,3584,3584,3840,3840,3584,3840,4352,5120,5120,5120,5120,5120,5120,5120,4864,4352,4096,4352,4352,4352,4352,4352,4352,4352,4352,4352,4352,4352,4352,4352,4352,4352,4352,4352,4352,4352,4352,4352,4352,4352,4352,4352,4352,4352,4096,4352,4864,5120,4352,3328,1536,512,0,0,0,0,512,1024,1792,2304,1792,1280,768.0001,768.0001,512,512,256,0,0,512,512,768.0001,1024,1024,1024,1024,1024,1280,1280,768.0001,0,0,0,1280,512,0,768.0001,2304,2304,1536,1280,1024,768.0001,512,0,0,0,0,0,0,0,0,0,0,0,256,768.0001,768.0001,512,512,768.0001,768.0001,512,0,0,0,1024,2560,4096,4352,4096,3328,3072,2560,3072,3072,2560,2048
0,0,0,0,0,0,0,0,0,0,0,0,0,0,0,0,0,0,0,512,2304,4352,5376,5120,5120,5120,5120,5120,5120,5120,5120,5120,5120,5120,5120,5120,5120,5120,5120,5120,5120,5120,5120,5120,5120,5120,5120,5120,5120,5120,5120,5120,5120,5120,5120,5120,5120,5120,5120,5120,5120,5120,5120,5120,5120,5120,5120,5120,5120,5120,5120,5120,3584,2048,1792,2048,3328,3840,3840,3840,4096,4352,4096,3840,3584,3840,3840,3840,3840,3840,3840,3840,3840,3840,3840,3840,3584,3584,3584,3840,3840,3840,3840,3840,3840,3840,3840,3840,3840,3840,3840,3840,3840,3840,3840,3840,3840,3840,3584,3840,4096,4352,4352,4352,4352,4352,4352,4352,4352,4352,4352,4352,4352,4352,4352,4352,4352,4352,4352,4352,4352,4352,4096,3584,3584,3584,3584,3584,3584,3584,3584,3584,3840,4352,4352,4352,4352,4352,4352,4352,4352,4352,4352,4352,4352,4352,4352,4352,4352,4352,4352,4352,4352,4352,4352,4352,4352,4352,4352,4352,4352,4352,4352,4352,4352,4352,4352,4352,4352,4352,4352,4352,4352,4352,4352,4352,4352,4352,4352,4352,4352,4352,4352,4352,4352,4352,4352,4352,4352,4352,4352,4352,4352,4352,4352,4352,4352,4352,4352,4352,4352,4352,4352,4352,4352,4352,4352,4352,4352,4352,4352,4352,4352,4096,4096,4096,4096,4096,4096,4096,4352,4864,4864,4864,4864,4864,4864,4864,4352,4352,4352,4352,4352,4352,4352,4352,4352,4352,4352,4352,4352,4352,4352,4352,3840,3840,4096,4352,3584,3072,2560,1792,768.0001,0,256,768.0001,768.0001,768.0001,768.0001,1024,768.0001,768.0001,768.0001,768.0001,768.0001,768.0001,768.0001,768.0001,768.0001,768.0001,768.0001,768.0001,768.0001,768.0001,768.0001,768.0001,768.0001,768.0001,768.0001,768.0001,768.0001,768.0001,768.0001,768.0001,768.0001,768.0001,768.0001,768.0001,768.0001,768.0001,768.0001,768.0001,768.0001,768.0001,768.0001,768.0001,768.0001,768.0001,768.0001,768.0001,768.0001,768.0001,768.0001,768.0001,768.0001,768.0001,768.0001,768.0001,768.0001,768.0001,768.0001,768.0001,768.0001,768.0001,768.0001,768.0001,768.0001,768.0001,768.0001,768.0001,768.0001,768.0001,768.0001,768.0001,768.0001,768.0001,768.0001,768.0001,768.0001,768.0001,768.0001,768.0001,768.0001,768.0001,768.0001,768.0001,768.0001,768.0001,768.0001,768.0001,768.0001,768.0001,768.0001,768.0001,768.0001,768.0001,768.0001,768.0001,768.0001,768.0001,768.0001,768.0001,768.0001,768.0001,768.0001,768.0001,768.0001,768.0001,768.0001,768.0001,768.0001,768.0001,768.0001,768.0001,768.0001,768.0001,768.0001,768.0001,768.0001,768.0001,768.0001,768.0001,512,512,512,512,512,512,512,512,512,256,256,256,256,256,0,0,0,0,0,0,0,0,1024,2560,3328,3840,3840,3840,4096,4352,4352,4352,4352,4352,4352,4352,4352,4352,4352,4352,4352,4352,4352,4352,4352,4352,4352,4352,4352,4352,4352,4352,4352,4352,4352,4352,4352,4352,4352,4352,4352,4352,4352,4352,4352,4352,4352,4352,4352,4352,4352,4352,4352,4352,4352,4352,4352,4352,4352,4352,4096,3840,3584,3840,3840,3840,3584,3840,4352,5120,5120,5120,5120,5120,5120,5120,4864,4352,4096,4352,4352,4352,4352,4352,4352,4352,4352,4352,4352,4352,4352,4352,4352,4352,4352,4352,4352,4352,4352,4352,4352,4352,4352,4352,4352,4352,4096,4352,4864,5120,4864,3328,1536,512,0,0,0,0,512,1024,1792,2048,2048,1536,1024,768.0001,256,0,0,0,0,512,512,768.0001,768.0001,1024,1024,1024,1280,1280,1024,768.0001,0,0,0,1280,512,0,768.0001,2304,2304,1536,1280,1024,768.0001,512,0,0,0,0,0,0,0,0,0,0,0,256,768.0001,768.0001,768.0001,768.0001,768.0001,768.0001,256,0,0,0,1024,2560,4096,4352,3840,3328,2560,2048,2304,2304,1792,768.0001
0,0,0,0,0,0,0,0,0,0,0,0,0,0,0,0,0,0,0,256,2048,4352,5376,5120,5120,5120,5120,5120,5120,5120,5120,5120,5120,5120,5120,5120,5120,5120,5120,5120,5120,5120,5120,5120,5120,5120,5120,5120,5120,5120,5120,5120,5120,5120,5120,5120,5120,5120,5120,5120,5120,5120,5120,5120,5120,5120,5120,5120,5120,5120,5120,5120,3328,2048,1536,2048,3328,3840,3840,3840,4096,4352,4096,3840,3584,3840,3840,3840,3840,3840,3840,3840,3840,3840,3840,3840,3840,3840,3840,3840,3584,3584,3584,3584,3584,3584,3584,3840,3840,3840,3840,3840,3840,3840,3840,3840,3840,3840,3584,3840,4096,4352,4352,4352,4352,4352,4352,4352,4352,4352,4352,4352,4352,4352,4352,4352,4352,4352,4352,4352,4352,4352,4096,3840,3840,3840,3840,3840,3840,3840,3840,3840,4096,4352,4352,4352,4352,4352,4352,4352,4352,4352,4352,4352,4352,4352,4352,4352,4352,4352,4352,4352,4352,4352,4352,4352,4352,4352,4352,4352,4352,4352,4352,4352,4352,4352,4352,4352,4352,4352,4352,4352,4352,4352,4352,4352,4352,4352,4352,4352,4352,4352,4352,4352,4352,4352,4352,4352,4352,4352,4352,4352,4352,4352,4352,4352,4352,4352,4352,4352,4352,4352,4352,4352,4352,4352,4352,4352,4352,4352,4352,4352,4352,4352,4352,4352,4352,4352,4352,4352,4096,3840,3840,3840,3840,3840,3840,4096,4096,4096,4352,4352,4352,4352,4352,4352,4352,4352,4352,4352,4352,4352,4352,4352,3840,3840,4096,4352,4096,3584,3584,2560,768.0001,0,0,768.0001,768.0001,768.0001,768.0001,1024,768.0001,768.0001,768.0001,768.0001,768.0001,768.0001,768.0001,768.0001,768.0001,768.0001,768.0001,768.0001,768.0001,768.0001,768.0001,768.0001,768.0001,768.0001,768.0001,768.0001,768.0001,768.0001,768.0001,768.0001,768.0001,768.0001,768.0001,768.0001,768.0001,768.0001,768.0001,768.0001,768.0001,768.0001,768.0001,768.0001,768.0001,768.0001,768.0001,768.0001,768.0001,768.0001,768.0001,768.0001,768.0001,768.0001,768.0001,768.0001,768.0001,768.0001,768.0001,768.0001,768.0001,768.0001,768.0001,768.0001,768.0001,768.0001,768.0001,768.0001,768.0001,768.0001,768.0001,768.0001,768.0001,768.0001,768.0001,768.0001,768.0001,768.0001,768.0001,768.0001,768.0001,768.0001,768.0001,768.0001,768.0001,768.0001,768.0001,768.0001,768.0001,768.0001,768.0001,768.0001,768.0001,768.0001,768.0001,768.0001,768.0001,768.0001,768.0001,768.0001,768.0001,768.0001,768.0001,768.0001,768.0001,768.0001,768.0001,768.0001,768.0001,768.0001,768.0001,768.0001,768.0001,768.0001,768.0001,768.0001,768.0001,768.0001,768.0001,768.0001,512,512,512,512,512,512,512,512,512,256,256,256,256,256,256,0,0,0,0,0,0,0,1280,3072,3328,3840,3840,3840,4096,4352,4352,4352,4352,4352,4352,4352,4352,4352,4352,4352,4352,4352,4352,4352,4352,4352,4352,4352,4352,4352,4352,4352,4352,4352,4352,4352,4352,4352,4352,4352,4352,4352,4352,4352,4352,4352,4352,4352,4352,4352,4352,4352,4352,4352,4352,4352,4352,4352,4352,4352,4096,3840,3584,3840,3840,3840,3584,3840,4352,5120,5120,5120,5120,5120,5120,5120,4864,4352,4096,4352,4352,4352,4352,4352,4352,4352,4352,4352,4352,4352,4352,4352,4352,4352,4352,4352,4352,4352,4352,4352,4352,4352,4352,4352,4352,4352,4096,4352,4864,4864,4352,3328,1536,512,0,0,0,0,512,1024,1792,2048,2048,1536,1280,768.0001,256,0,0,0,0,512,768.0001,768.0001,1024,1024,1024,1024,1024,1024,768.0001,512,0,0,0,1280,768.0001,0,768.0001,2048,2304,1536,1280,1024,768.0001,512,0,0,0,0,0,0,0,0,0,0,0,256,768.0001,768.0001,768.0001,768.0001,768.0001,768.0001,512,0,0,0,1280,3072,4096,4864,3840,3328,2304,1792,2048,2048,1280,512
0,0,0,0,0,0,0,0,0,0,0,0,0,0,0,0,0,0,0,256,2304,4352,5376,5120,5120,5120,5120,5120,5120,5120,5120,5120,5120,5120,5120,5120,5120,5120,5120,5120,5120,5120,5120,5120,5120,5120,5120,5120,5120,5120,5120,5120,5120,5120,5120,5120,5120,5120,5120,5120,5120,5120,5120,5120,5120,5120,5120,5120,5120,5120,5120,5120,3328,1792,1536,2048,3328,3840,3840,3840,4096,4352,4096,3584,3584,3840,3840,3584,3584,3840,3840,3840,3840,3840,3584,3840,3840,4096,4096,3840,3584,3328,3328,3328,3328,3328,3584,3840,3840,3840,3840,3840,3840,3840,3840,3840,3840,3840,3584,3840,4096,4352,4352,4352,4352,4352,4352,4352,4352,4352,4352,4352,4352,4352,4352,4352,4352,4352,4352,4352,4352,4352,4096,4096,4096,4096,4096,4096,4096,4096,4096,4096,4096,4352,4352,4352,4352,4352,4352,4352,4352,4352,4352,4352,4352,4352,4352,4352,4352,4352,4352,4352,4352,4352,4352,4352,4352,4352,4352,4352,4352,4352,4352,4352,4352,4352,4352,4352,4352,4352,4352,4352,4352,4352,4352,4352,4352,4352,4352,4352,4352,4352,4352,4352,4352,4352,4352,4352,4352,4352,4352,4352,4352,4352,4352,4352,4352,4352,4352,4352,4352,4352,4352,4352,4352,4352,4352,4352,4352,4352,4096,4352,4352,4864,4864,4864,4864,4864,5120,4864,4096,3328,3328,3328,3328,3328,3584,3840,4096,4352,4352,4352,4352,4352,4352,4352,4352,4352,4352,4352,4352,4352,4352,4352,3840,3840,3840,4352,4864,5120,4352,3072,1024,0,0,768.0001,768.0001,768.0001,768.0001,1024,768.0001,768.0001,768.0001,768.0001,768.0001,768.0001,768.0001,768.0001,768.0001,768.0001,768.0001,768.0001,768.0001,768.0001,768.0001,768.0001,768.0001,768.0001,768.0001,768.0001,768.0001,768.0001,768.0001,768.0001,768.0001,768.0001,768.0001,768.0001,768.0001,768.0001,768.0001,768.0001,768.0001,768.0001,768.0001,768.0001,768.0001,768.0001,768.0001,768.0001,768.0001,768.0001,768.0001,768.0001,768.0001,768.0001,768.0001,768.0001,768.0001,768.0001,768.0001,768.0001,768.0001,768.0001,768.0001,768.0001,768.0001,768.0001,768.0001,768.0001,768.0001,768.0001,768.0001,768.0001,768.0001,768.0001,768.0001,768.0001,768.0001,768.0001,768.0001,768.0001,768.0001,768.0001,768.0001,768.0001,768.0001,768.0001,768.0001,768.0001,768.0001,768.0001,768.0001,768.0001,768.0001,768.0001,768.0001,768.0001,768.0001,768.0001,768.0001,768.0001,768.0001,768.0001,768.0001,768.0001,768.0001,768.0001,768.0001,768.0001,768.0001,768.0001,768.0001,768.0001,768.0001,768.0001,768.0001,768.0001,768.0001,768.0001,768.0001,768.0001,512,512,512,512,512,512,512,512,512,256,256,256,256,256,256,256,0,0,0,0,0,0,1280,3072,3328,3840,3840,3840,4096,4352,4352,4352,4352,4352,4352,4352,4352,4352,4352,4352,4352,4352,4352,4352,4352,4352,4352,4352,4352,4352,4352,4352,4352,4352,4352,4352,4352,4352,4352,4352,4352,4352,4352,4352,4352,4352,4352,4352,4352,4352,4352,4352,4352,4352,4352,4352,4352,4352,4352,4352,4096,3840,3584,3584,3584,3584,3584,3584,4352,5120,5120,5120,5120,5120,5120,5120,4864,4352,4096,4352,4352,4352,4352,4352,4352,4352,4352,4352,4352,4352,4352,4352,4352,4352,4352,4352,4352,4352,4352,4352,4352,4352,4352,4352,4352,4352,4352,4352,4352,4352,4352,3328,1536,512,0,0,0,0,512,1024,1792,2304,2048,1536,1024,768.0001,256,0,0,0,0,512,768.0001,1024,1024,1024,1024,1024,1024,768.0001,512,0,0,0,0,1280,768.0001,512,768.0001,1792,2048,1536,1536,1024,768.0001,512,0,0,0,0,0,0,0,0,0,0,0,256,768.0001,768.0001,768.0001,768.0001,768.0001,1024,512,0,0,256,1536,3328,3840,4352,3840,3072,1792,1280,1792,2048,1024,0
0,0,0,0,0,0,0,0,0,0,0,0,0,0,0,0,0,0,0,256,2304,4352,5376,5120,5120,5120,5120,5120,5120,5120,5120,5120,5120,5120,5120,5120,5120,5120,5120,5120,5120,5120,5120,5120,5120,5120,5120,5120,5120,5120,5120,5120,5120,5120,5120,5120,5120,5120,5120,5120,5120,5120,5120,5120,5120,5120,5120,5120,5120,5120,5120,5120,3584,2048,1792,2304,3328,3840,3840,3840,4096,4352,4096,3840,3840,3840,3840,3840,3840,3840,3840,3840,3840,3840,3584,3840,4096,4352,4096,3840,3328,3072,3072,3072,3072,3072,3584,3840,3840,3840,3840,3840,3840,3840,3840,3840,3840,3840,3584,3840,4096,4352,4352,4352,4352,4352,4352,4352,4352,4352,4352,4352,4352,4352,4352,4352,4352,4352,4352,4352,4352,4352,4352,4352,4352,4352,4352,4352,4352,4352,4352,4352,4352,4352,4352,4352,4352,4352,4352,4352,4352,4352,4352,4352,4352,4352,4352,4352,4352,4352,4352,4352,4352,4352,4352,4352,4352,4352,4352,4352,4352,4352,4352,4352,4352,4352,4352,4352,4352,4352,4352,4352,4352,4352,4352,4352,4352,4352,4352,4352,4352,4352,4352,4352,4352,4352,4352,4352,4352,4352,4352,4352,4352,4352,4352,4352,4352,4352,4352,4352,4352,4352,4352,4352,4352,4352,4352,4352,4352,4352,4096,4352,4864,5120,5120,5120,5120,5120,5120,5120,4096,3328,3328,3328,3328,3328,3584,3840,4096,4352,4352,4352,4352,4352,4352,4352,4352,4352,4352,4352,4352,4352,4352,4352,3840,3840,3840,4352,5120,5632,5376,3840,1536,0,256,768.0001,768.0001,768.0001,1024,1024,1024,768.0001,768.0001,768.0001,768.0001,768.0001,768.0001,768.0001,768.0001,768.0001,768.0001,768.0001,768.0001,768.0001,768.0001,768.0001,768.0001,768.0001,768.0001,768.0001,768.0001,768.0001,768.0001,768.0001,768.0001,768.0001,768.0001,768.0001,768.0001,768.0001,768.0001,768.0001,768.0001,768.0001,768.0001,768.0001,768.0001,768.0001,768.0001,768.0001,768.0001,768.0001,768.0001,768.0001,768.0001,768.0001,768.0001,768.0001,768.0001,768.0001,768.0001,768.0001,768.0001,768.0001,768.0001,768.0001,768.0001,768.0001,768.0001,768.0001,768.0001,768.0001,768.0001,768.0001,768.0001,768.0001,768.0001,768.0001,768.0001,768.0001,768.0001,768.0001,768.0001,768.0001,768.0001,768.0001,768.0001,768.0001,768.0001,768.0001,768.0001,768.0001,768.0001,768.0001,768.0001,768.0001,768.0001,768.0001,768.0001,768.0001,768.0001,768.0001,768.0001,768.0001,768.0001,768.0001,768.0001,768.0001,768.0001,768.0001,768.0001,768.0001,768.0001,768.0001,768.0001,768.0001,768.0001,768.0001,768.0001,768.0001,768.0001,768.0001,512,512,512,512,512,512,512,512,512,256,256,256,256,256,256,256,512,512,0,0,0,0,1280,2560,3328,3840,3840,3840,4096,4352,4352,4352,4352,4352,4352,4352,4352,4352,4352,4352,4352,4352,4352,4352,4352,4352,4352,4352,4352,4352,4352,4352,4352,4352,4352,4352,4352,4352,4352,4352,4352,4352,4352,4352,4352,4352,4352,4352,4352,4352,4352,4352,4352,4352,4352,4352,4352,4352,4352,4352,4096,3840,3840,3840,3840,3840,3840,3840,4352,5120,5120,5120,5120,5120,5120,5120,4864,4352,4096,4352,4352,4352,4352,4352,4352,4352,4352,4352,4352,4352,4352,4352,4352,4352,4352,4352,4352,4352,4352,4352,4352,4352,4352,4352,4352,4352,4352,4352,4352,4096,4096,3328,1792,768.0001,256,0,0,0,512,1024,1792,2048,2048,1536,1024,768.0001,256,0,0,0,0,512,768.0001,1024,1280,1024,1024,1024,768.0001,768.0001,512,0,0,0,0,1280,1024,768.0001,768.0001,1536,1792,1536,1280,1024,768.0001,512,0,0,0,0,0,0,0,0,0,0,0,256,768.0001,768.0001,768.0001,768.0001,1024,1280,768.0001,256,0,256,1536,3328,3840,3840,4096,3584,2048,1024,1536,1792,768.0001,0
0,0,0,0,0,0,0,0,0,0,0,0,0,0,0,0,0,0,0,256,2304,4352,5376,5120,5120,5120,5120,5120,5120,5120,5120,5120,5120,5120,5120,5120,5120,5120,5120,5120,5120,5120,5120,5120,5120,5120,5120,5120,5120,5120,5120,5120,5120,5120,5120,5120,5120,5120,5120,5120,5120,5120,5120,5120,5120,5120,5120,5120,5120,5120,5120,5120,3584,2304,2048,2304,3328,3840,3840,3840,4096,4352,4352,4096,3840,3840,3840,4096,4096,3840,3584,3840,3840,3840,3584,3840,4096,4352,4096,3840,3328,2560,3072,3328,3328,3328,3584,3840,3840,3840,3840,3840,3840,3584,3584,3584,3584,3584,3584,3584,4096,4352,4352,4352,4352,4352,4352,4352,4352,4352,4352,4352,4352,4352,4352,4352,4352,4352,4352,4352,4352,4352,4352,4352,4352,4352,4352,4352,4352,4352,4352,4352,4352,4352,4352,4352,4352,4352,4352,4352,4352,4352,4352,4352,4352,4352,4352,4352,4352,4352,4352,4352,4352,4352,4352,4352,4352,4352,4352,4352,4352,4352,4352,4352,4352,4352,4352,4352,4352,4352,4352,4352,4352,4352,4352,4352,4352,4352,4352,4352,4352,4352,4352,4352,4352,4352,4352,4352,4352,4352,4352,4352,4352,4352,4352,4352,4352,4352,4352,4352,4352,4352,4352,4352,4352,4352,4352,4352,4352,4352,4096,4352,4864,5120,5120,5120,5120,5120,5120,5120,4352,4096,3840,4096,4096,4096,4096,4096,4096,4352,4352,4352,4352,4352,4352,4352,4352,4352,4352,4352,4352,4352,4352,4352,3840,3840,3840,4352,5120,5632,5632,4352,2304,512,512,768.0001,768.0001,768.0001,1024,1280,1024,768.0001,768.0001,768.0001,768.0001,768.0001,768.0001,768.0001,768.0001,768.0001,768.0001,768.0001,768.0001,768.0001,768.0001,768.0001,768.0001,768.0001,768.0001,768.0001,768.0001,768.0001,768.0001,768.0001,768.0001,768.0001,768.0001,768.0001,768.0001,768.0001,768.0001,768.0001,768.0001,768.0001,768.0001,768.0001,768.0001,768.0001,768.0001,768.0001,768.0001,768.0001,768.0001,768.0001,768.0001,768.0001,768.0001,768.0001,768.0001,768.0001,768.0001,768.0001,768.0001,768.0001,768.0001,768.0001,768.0001,768.0001,768.0001,768.0001,768.0001,768.0001,768.0001,768.0001,768.0001,768.0001,768.0001,768.0001,768.0001,768.0001,768.0001,768.0001,768.0001,768.0001,768.0001,768.0001,768.0001,768.0001,768.0001,768.0001,768.0001,768.0001,768.0001,768.0001,768.0001,768.0001,768.0001,768.0001,768.0001,768.0001,768.0001,768.0001,768.0001,768.0001,768.0001,768.0001,768.0001,768.0001,768.0001,768.0001,768.0001,768.0001,768.0001,768.0001,768.0001,768.0001,768.0001,768.0001,768.0001,1024,768.0001,768.0001,512,512,512,512,512,768.0001,512,512,256,0,0,0,256,256,256,256,768.0001,1280,512,0,0,0,1280,2560,3328,3584,3584,3584,4096,4352,4352,4352,4352,4352,4352,4352,4352,4352,4352,4352,4352,4352,4352,4352,4352,4352,4352,4352,4352,4352,4352,4352,4352,4352,4352,4352,4352,4352,4352,4352,4352,4352,4352,4352,4352,4352,4352,4352,4352,4352,4352,4352,4352,4352,4352,4352,4352,4352,4352,4352,3840,3584,3840,4096,4096,4096,4096,4096,4352,5120,5120,5120,5120,5120,5120,5120,4864,4352,4096,4352,4352,4352,4352,4352,4352,4352,4352,4352,4352,4352,4352,4352,4352,4352,4352,4352,4352,4352,4352,4352,4352,4352,4352,4352,4352,4352,4096,4096,4352,4352,4096,3328,2304,1280,768.0001,512,256,0,512,1024,1536,1792,1792,1536,1280,768.0001,256,0,0,0,0,512,768.0001,1024,1280,1024,1024,1024,768.0001,768.0001,512,0,0,0,0,1280,1280,768.0001,768.0001,1280,1536,1280,1024,768.0001,512,256,0,0,0,0,0,0,0,0,0,0,0,512,512,768.0001,768.0001,768.0001,1280,1536,768.0001,256,0,0,1280,3072,3584,4352,4352,4096,2560,1536,1280,1024,768.0001,512
0,0,0,0,0,0,0,0,0,0,0,0,0,0,0,0,0,0,0,256,2304,4864,5376,5120,5120,5120,5120,5120,5120,5120,5120,5120,5120,5120,5120,5120,5120,5120,5120,5120,5120,5120,5120,5120,5120,5120,5120,5120,5120,5120,5120,5120,5120,5120,5120,5120,5120,5120,5120,5120,5120,5120,5120,5120,5120,5120,5120,5120,5120,5120,5120,5120,3840,2560,1792,2048,3072,3584,3840,3840,3840,4096,4096,4096,3840,3840,3840,4096,4096,3840,3584,3840,3840,3840,3584,3840,4096,4096,3840,3584,3072,2304,2560,3072,3072,3328,3328,3584,3584,3840,3840,3840,3840,3840,3840,3840,3840,3840,3840,3840,4096,4352,4352,4352,4352,4352,4352,4352,4352,4352,4352,4352,4352,4352,4352,4352,4352,4352,4352,4352,4352,4352,4352,4352,4352,4352,4352,4352,4352,4352,4352,4352,4352,4352,4352,4352,4352,4352,4352,4352,4352,4352,4352,4352,4352,4352,4352,4352,4352,4352,4352,4352,4352,4352,4352,4352,4352,4352,4352,4352,4352,4352,4352,4352,4352,4352,4352,4352,4352,4352,4352,4352,4352,4352,4352,4352,4352,4352,4352,4352,4352,4352,4352,4352,4352,4352,4352,4352,4352,4352,4352,4352,4352,4352,4352,4352,4352,4352,4352,4352,4352,4352,4352,4352,4352,4352,4352,4352,4352,4352,4096,4352,4352,4864,4864,4864,4864,4864,4864,4864,4864,4352,4352,4352,4352,4352,4352,4352,4352,4352,4352,4352,4352,4352,4352,4352,4352,4352,4352,4352,4352,4352,4352,4352,3840,3840,3840,4096,4864,5120,5376,4352,2304,512,512,768.0001,768.0001,768.0001,768.0001,768.0001,768.0001,768.0001,768.0001,768.0001,768.0001,768.0001,768.0001,768.0001,768.0001,768.0001,768.0001,768.0001,768.0001,768.0001,768.0001,768.0001,768.0001,768.0001,768.0001,768.0001,768.0001,768.0001,768.0001,768.0001,768.0001,768.0001,768.0001,768.0001,768.0001,768.0001,768.0001,768.0001,768.0001,768.0001,768.0001,768.0001,768.0001,768.0001,768.0001,768.0001,768.0001,768.0001,768.0001,768.0001,768.0001,768.0001,768.0001,768.0001,768.0001,768.0001,768.0001,768.0001,768.0001,768.0001,768.0001,768.0001,768.0001,768.0001,768.0001,768.0001,768.0001,768.0001,768.0001,768.0001,768.0001,768.0001,768.0001,768.0001,768.0001,768.0001,768.0001,768.0001,768.0001,768.0001,768.0001,768.0001,768.0001,768.0001,768.0001,768.0001,768.0001,768.0001,768.0001,768.0001,768.0001,768.0001,768.0001,768.0001,768.0001,768.0001,768.0001,768.0001,768.0001,768.0001,768.0001,768.0001,768.0001,768.0001,768.0001,768.0001,768.0001,768.0001,768.0001,768.0001,768.0001,768.0001,768.0001,768.0001,1024,1280,768.0001,768.0001,768.0001,768.0001,512,512,512,768.0001,768.0001,512,256,0,0,0,0,256,256,256,768.0001,1024,512,0,0,768.0001,1536,3072,3584,3840,3840,3840,4096,4352,4352,4352,4352,4352,4352,4352,4352,4352,4352,4352,4352,4352,4352,4352,4352,4352,4352,4352,4352,4352,4352,4352,4352,4352,4352,4352,4352,4352,4352,4352,4352,4352,4352,4352,4352,4352,4352,4352,4352,4352,4352,4352,4352,4352,4352,4352,4352,4352,4352,4352,4096,3840,4096,4352,4352,4352,4352,4352,4352,4864,4864,4864,4864,4864,4864,4864,4352,4352,4096,4352,4352,4352,4352,4352,4352,4352,4352,4352,4352,4352,4352,4352,4352,4352,4352,4352,4352,4352,4352,4352,4352,4352,4352,4352,4352,4352,4352,4352,4352,4352,4096,3328,2560,1792,1280,768.0001,512,256,512,1024,1536,1536,1792,1536,1280,768.0001,256,0,0,0,0,512,768.0001,1024,1280,1024,1024,1024,1024,768.0001,768.0001,512,0,0,256,1280,1280,768.0001,768.0001,1024,1280,1024,768.0001,768.0001,512,0,0,0,0,0,0,0,0,0,0,0,0,512,768.0001,768.0001,768.0001,768.0001,1280,1536,768.0001,0,0,0,1024,3072,3584,4096,4096,3584,2048,768.0001,768.0001,512,512,512
0,0,0,0,0,0,0,0,0,0,0,0,0,0,0,0,0,0,0,512,2304,4864,5376,5120,5120,5120,5120,5120,5120,5120,5120,5120,5120,5120,5120,5120,5120,5120,5120,5120,5120,5120,5120,5120,5120,5120,5120,5120,5120,5120,5120,5120,5120,5120,5120,5120,5120,5120,5120,5120,5120,5120,5120,5120,5120,5120,5120,5120,5120,5120,5120,5120,3840,2304,1792,1280,2048,3328,3584,3840,3840,3840,3840,3840,3840,3840,3840,3840,3840,3840,3840,3840,3840,3840,3584,3584,3840,3840,3584,3328,3072,2304,2304,2048,2560,3328,3328,3328,3584,3840,3840,3840,4096,4096,4096,4096,4096,4096,4096,4096,4096,4352,4352,4352,4352,4352,4352,4352,4352,4352,4352,4352,4352,4352,4352,4352,4352,4352,4352,4352,4352,4352,4352,4352,4352,4352,4352,4352,4352,4352,4352,4352,4352,4352,4352,4352,4352,4352,4352,4352,4352,4352,4352,4352,4352,4352,4352,4352,4352,4352,4352,4352,4352,4352,4352,4352,4352,4352,4352,4352,4352,4352,4352,4352,4352,4352,4352,4352,4352,4352,4352,4352,4352,4352,4352,4352,4352,4352,4352,4352,4352,4352,4352,4352,4352,4352,4352,4352,4352,4352,4352,4352,4352,4352,4352,4352,4352,4352,4352,4352,4352,4352,4352,4352,4352,4352,4352,4352,4352,4352,4352,4352,4352,4352,4352,4352,4352,4352,4352,4352,4352,4352,4352,4352,4352,4352,4352,4352,4352,4352,4352,4352,4352,4352,4352,4352,4352,4352,4352,4352,4352,4352,4352,4352,4096,3840,3840,3840,4096,4096,4352,4096,2048,512,512,512,512,512,512,512,768.0001,768.0001,768.0001,768.0001,768.0001,768.0001,768.0001,768.0001,768.0001,768.0001,768.0001,768.0001,768.0001,768.0001,768.0001,768.0001,768.0001,768.0001,768.0001,768.0001,768.0001,768.0001,768.0001,768.0001,768.0001,768.0001,768.0001,768.0001,768.0001,768.0001,768.0001,768.0001,768.0001,768.0001,768.0001,768.0001,768.0001,768.0001,768.0001,768.0001,768.0001,768.0001,768.0001,768.0001,768.0001,768.0001,768.0001,768.0001,768.0001,768.0001,768.0001,768.0001,768.0001,768.0001,768.0001,768.0001,768.0001,768.0001,768.0001,768.0001,768.0001,768.0001,768.0001,768.0001,768.0001,768.0001,768.0001,768.0001,768.0001,768.0001,768.0001,768.0001,768.0001,768.0001,768.0001,768.0001,768.0001,768.0001,768.0001,768.0001,768.0001,768.0001,768.0001,768.0001,768.0001,768.0001,768.0001,768.0001,768.0001,768.0001,768.0001,768.0001,768.0001,768.0001,768.0001,768.0001,768.0001,768.0001,768.0001,768.0001,768.0001,768.0001,768.0001,768.0001,768.0001,1280,1024,1024,1024,1280,768.0001,512,768.0001,1280,768.0001,512,512,768.0001,512,512,512,512,0,0,0,0,0,0,256,256,0,0,512,1280,2304,3328,4096,4096,4096,4096,4096,4352,4352,4352,4352,4352,4352,4352,4352,4352,4352,4352,4352,4352,4352,4352,4352,4352,4352,4352,4352,4352,4352,4352,4352,4352,4352,4352,4352,4352,4352,4352,4352,4352,4352,4352,4352,4352,4352,4352,4352,4352,4352,4352,4352,4352,4352,4352,4352,4352,4352,4352,4096,4096,4096,4352,4352,4352,4352,4352,4352,4352,4352,4352,4352,4352,4352,4352,4352,4352,4352,4352,4352,4352,4352,4352,4352,4352,4352,4352,4352,4352,4352,4352,4352,4352,4352,4352,4352,4352,4352,4352,4352,4352,4352,4352,4096,4352,4864,4864,4864,4352,4096,3840,3328,2304,1280,768.0001,512,512,768.0001,1024,1536,1536,1792,1792,1280,512,256,0,0,0,0,256,768.0001,1024,1280,1024,1024,1024,1024,1024,1024,768.0001,256,0,512,1536,1024,768.0001,1024,1280,1024,768.0001,768.0001,512,256,0,0,0,0,0,0,0,0,0,0,0,256,768.0001,768.0001,1024,1024,1024,1536,1536,512,0,0,0,1280,3584,4096,3584,3072,2048,1024,512,512,256,256,0
0,0,0,0,0,0,0,0,0,0,0,0,0,0,0,0,0,0,0,0,2048,4352,5120,4864,4864,5120,5120,5120,5120,5120,5120,5120,5120,5120,5120,5120,5120,5120,5120,5120,5120,5120,5120,5120,5120,5120,5120,5120,5120,5120,5120,5120,5120,5120,5120,5120,5120,5120,5120,5120,5120,5120,5120,5120,5120,5120,5120,5120,5120,5120,5120,5120,3840,2560,1792,1024,1536,3072,3584,3840,3840,3584,3584,3584,3584,3840,3840,3840,3840,3840,3840,3840,3840,3840,3840,3840,3840,3584,3584,3328,3072,2560,2048,2048,2304,3328,3328,3072,3328,3584,3584,3584,3840,4352,4352,4352,4352,4352,4352,4352,4352,4352,4352,4352,4352,4352,4352,4352,4352,4352,4352,4352,4352,4352,4352,4352,4352,4352,4352,4352,4352,4352,4352,4352,4352,4352,4352,4352,4352,4352,4352,4352,4352,4352,4352,4352,4352,4352,4352,4352,4352,4352,4352,4352,4352,4352,4352,4352,4352,4352,4352,4352,4352,4352,4352,4352,4352,4352,4352,4352,4352,4352,4352,4352,4352,4352,4352,4352,4352,4352,4352,4352,4352,4352,4352,4352,4352,4352,4352,4352,4352,4352,4352,4352,4352,4352,4352,4352,4352,4352,4352,4352,4352,4352,4352,4352,4352,4352,4352,4352,4352,4352,4352,4352,4352,4352,4352,4352,4352,4352,4352,4352,4352,4096,4096,4096,4096,4096,4096,4096,4352,4352,4352,4352,4352,4352,4352,4352,4352,4352,4352,4352,4352,4352,4352,4352,4352,4352,4352,4352,4352,4352,4352,4352,4096,3840,3584,3584,3584,3584,3840,3584,1792,512,256,512,512,512,512,512,512,768.0001,768.0001,768.0001,768.0001,768.0001,768.0001,768.0001,768.0001,768.0001,768.0001,768.0001,768.0001,768.0001,768.0001,768.0001,768.0001,768.0001,768.0001,768.0001,768.0001,768.0001,768.0001,768.0001,768.0001,768.0001,768.0001,768.0001,768.0001,768.0001,768.0001,768.0001,768.0001,768.0001,768.0001,768.0001,768.0001,768.0001,768.0001,768.0001,768.0001,768.0001,768.0001,768.0001,768.0001,768.0001,768.0001,768.0001,768.0001,768.0001,768.0001,768.0001,768.0001,768.0001,768.0001,768.0001,768.0001,768.0001,768.0001,768.0001,768.0001,768.0001,768.0001,768.0001,768.0001,768.0001,768.0001,768.0001,768.0001,768.0001,768.0001,768.0001,768.0001,768.0001,768.0001,768.0001,768.0001,768.0001,768.0001,768.0001,768.0001,768.0001,768.0001,768.0001,768.0001,768.0001,768.0001,768.0001,768.0001,768.0001,768.0001,768.0001,768.0001,768.0001,768.0001,768.0001,768.0001,768.0001,768.0001,768.0001,768.0001,768.0001,768.0001,768.0001,768.0001,768.0001,1024,1024,1024,1024,768.0001,512,768.0001,1536,768.0001,256,512,768.0001,512,512,512,512,0,0,0,0,0,0,0,0,0,0,768.0001,1792,2560,3584,4096,4352,4352,4352,4352,4352,4352,4352,4352,4352,4352,4352,4352,4352,4352,4352,4352,4352,4352,4352,4352,4352,4352,4352,4352,4352,4352,4352,4352,4352,4352,4352,4352,4352,4352,4352,4352,4352,4352,4352,4352,4352,4352,4352,4352,4352,4352,4352,4352,4352,4352,4352,4352,4352,4352,4352,4352,4352,4352,4352,4352,4352,4352,4352,4352,4096,4096,4096,4096,4096,4096,4096,4352,4352,4352,4352,4352,4352,4352,4352,4352,4352,4352,4352,4352,4352,4352,4352,4352,4352,4352,4352,4352,4352,4352,4352,4352,4352,4352,4352,4096,4352,4352,4864,4352,4096,3840,3840,3328,2560,1536,768.0001,512,512,768.0001,1024,1536,1536,1536,1280,1024,512,256,0,0,0,0,256,768.0001,1024,1280,1024,1024,1024,1024,1024,1280,1280,512,0,512,1024,768.0001,512,768.0001,768.0001,768.0001,768.0001,768.0001,512,256,0,0,0,0,0,0,0,0,0,0,0,256,512,1024,1024,1024,1024,1536,1536,768.0001,0,0,0,1024,3328,3584,3328,2048,768.0001,512,512,256,0,0,0
0,0,0,0,0,0,0,0,0,0,0,0,0,0,0,0,0,0,0,0,1280,3584,4352,4352,4864,5120,5120,5120,5120,5120,5120,5120,5120,5120,5120,5120,5120,5120,5120,5120,5120,5120,5120,5120,5120,5120,5120,5120,5120,5120,5120,5120,5120,5120,5120,5120,5120,5120,5120,5120,5120,5120,5120,5120,5120,5120,5120,5120,5120,5120,5120,5120,4096,3072,1792,768.0001,1536,3328,3584,3840,3840,3840,3840,3840,3584,3840,3840,4096,3840,3840,3584,3840,3584,3840,3840,4096,4096,3840,3584,3584,3328,3072,2560,2304,2560,3072,3072,3072,3328,3328,3072,2560,3584,4352,4352,4352,4352,4352,4352,4352,4352,4352,4352,4352,4352,4352,4352,4352,4352,4352,4352,4352,4352,4352,4352,4352,4352,4352,4352,4352,4352,4352,4352,4352,4352,4352,4352,4352,4352,4352,4352,4352,4352,4352,4352,4352,4352,4352,4352,4352,4352,4352,4352,4352,4352,4352,4352,4352,4352,4352,4352,4352,4352,4352,4352,4352,4352,4352,4352,4352,4352,4352,4352,4352,4352,4352,4352,4352,4352,4352,4352,4352,4352,4352,4352,4352,4352,4352,4352,4352,4352,4352,4352,4352,4352,4352,4352,4352,4352,4352,4352,4352,4352,4352,4352,4352,4352,4352,4352,4352,4352,4352,4352,4352,4352,4352,4352,4352,4352,4352,4352,4352,4352,4352,4352,4352,4352,4352,4352,4352,4352,4352,4352,4352,4352,4352,4352,4352,4352,4352,4352,4352,4352,4352,4352,4352,4352,4352,4352,4352,4352,4352,4352,4352,4096,3840,3584,3840,3584,3584,3840,3840,2048,512,512,512,512,512,512,512,512,768.0001,768.0001,768.0001,768.0001,768.0001,768.0001,768.0001,768.0001,768.0001,768.0001,768.0001,768.0001,768.0001,768.0001,768.0001,768.0001,768.0001,768.0001,768.0001,768.0001,768.0001,768.0001,768.0001,768.0001,768.0001,768.0001,768.0001,768.0001,768.0001,768.0001,768.0001,768.0001,768.0001,768.0001,768.0001,768.0001,768.0001,768.0001,768.0001,768.0001,768.0001,768.0001,768.0001,768.0001,768.0001,768.0001,768.0001,768.0001,768.0001,768.0001,768.0001,768.0001,768.0001,768.0001,768.0001,768.0001,768.0001,768.0001,768.0001,768.0001,768.0001,768.0001,768.0001,768.0001,768.0001,768.0001,768.0001,768.0001,768.0001,768.0001,768.0001,768.0001,768.0001,768.0001,768.0001,768.0001,768.0001,768.0001,768.0001,768.0001,768.0001,768.0001,768.0001,768.0001,768.0001,768.0001,768.0001,768.0001,768.0001,768.0001,768.0001,768.0001,768.0001,768.0001,768.0001,768.0001,768.0001,768.0001,768.0001,768.0001,768.0001,768.0001,768.0001,512,0,512,1024,1024,768.0001,512,512,512,768.0001,256,0,256,768.0001,512,512,512,512,0,0,0,0,0,0,0,0,0,0,512,2048,3072,3328,4096,4352,4352,4352,4352,4352,4352,4352,4352,4352,4352,4352,4352,4352,4352,4352,4352,4352,4352,4352,4352,4352,4352,4352,4352,4352,4352,4352,4352,4352,4352,4352,4352,4352,4352,4352,4352,4352,4352,4352,4352,4352,4352,4352,4352,4352,4352,4352,4352,4352,4352,4352,4352,4352,4352,4352,4352,4352,4352,4352,4352,4352,4352,4352,4352,4352,4352,4352,4352,4352,4352,4352,4352,4352,4352,4352,4352,4352,4352,4352,4352,4352,4352,4352,4352,4352,4352,4352,4352,4352,4352,4352,4352,4352,4352,4352,4352,4352,4352,4352,4352,4352,4096,3840,3840,3840,3840,3584,3584,3072,1792,768.0001,512,256,512,1024,1536,1536,1280,768.0001,768.0001,512,0,0,0,0,0,0,768.0001,1024,1280,1024,1024,1024,1024,1024,1536,1536,768.0001,0,512,768.0001,512,0,512,512,512,512,512,0,0,0,0,0,0,0,0,0,0,0,0,0,256,512,1024,1024,1024,1024,1536,1536,768.0001,256,0,256,1024,2560,3072,3072,1792,768.0001,512,256,0,0,0,0
0,0,0,0,0,0,0,0,0,0,0,0,0,0,0,0,0,0,0,0,1024,3328,4096,4096,4864,5120,5120,5120,5120,5120,5120,5120,5120,5120,5120,5120,5120,5120,5120,5120,5120,5120,5120,5120,5120,5120,5120,5120,5120,5120,5120,5120,5120,5120,5120,5120,5120,5120,5120,5120,5120,5120,5120,5120,5120,5120,5120,5120,5120,5120,5120,5120,4096,3328,1792,768.0001,1536,3328,3584,3840,3840,3840,3840,3840,3584,3840,4096,4352,4096,3840,3584,3840,3584,3840,4096,4352,4096,3840,3840,3840,3584,3328,3072,3072,3072,3328,3328,3328,3328,3072,2560,2304,3328,4096,4352,4096,4096,4096,4096,4096,4096,4352,4352,4352,4352,4352,4352,4352,4352,4352,4352,4352,4352,4352,4352,4352,4352,4352,4352,4352,4352,4352,4352,4352,4352,4352,4352,4352,4352,4352,4352,4352,4352,4352,4352,4352,4352,4352,4352,4352,4352,4352,4352,4352,4352,4352,4352,4352,4352,4352,4352,4352,4352,4352,4352,4352,4352,4352,4352,4352,4352,4352,4352,4352,4352,4352,4352,4352,4352,4352,4352,4352,4352,4352,4352,4352,4352,4352,4352,4352,4352,4352,4352,4352,4352,4352,4352,4352,4352,4352,4352,4352,4352,4352,4352,4352,4352,4352,4352,4352,4352,4352,4352,4352,4352,4352,4352,4352,4352,4352,4352,4352,4352,4352,4352,4352,4352,4352,4352,4352,4352,4352,4352,4352,4352,4352,4352,4352,4352,4352,4352,4352,4352,4352,4352,4352,4352,4352,4352,4352,4352,4352,4352,4352,4096,3840,3584,3840,3840,3840,3840,3840,2048,512,512,512,512,512,512,512,512,768.0001,768.0001,768.0001,768.0001,768.0001,768.0001,768.0001,768.0001,768.0001,768.0001,768.0001,768.0001,768.0001,768.0001,768.0001,768.0001,768.0001,768.0001,768.0001,768.0001,768.0001,768.0001,768.0001,768.0001,768.0001,768.0001,768.0001,768.0001,768.0001,768.0001,768.0001,768.0001,768.0001,768.0001,768.0001,768.0001,768.0001,768.0001,768.0001,768.0001,768.0001,768.0001,768.0001,768.0001,768.0001,768.0001,768.0001,768.0001,768.0001,768.0001,768.0001,768.0001,768.0001,768.0001,768.0001,768.0001,768.0001,768.0001,768.0001,768.0001,768.0001,768.0001,768.0001,768.0001,768.0001,768.0001,768.0001,768.0001,768.0001,768.0001,768.0001,768.0001,768.0001,768.0001,768.0001,768.0001,768.0001,768.0001,768.0001,768.0001,768.0001,768.0001,768.0001,768.0001,768.0001,768.0001,768.0001,768.0001,768.0001,768.0001,768.0001,768.0001,768.0001,768.0001,768.0001,768.0001,768.0001,768.0001,768.0001,768.0001,768.0001,768.0001,768.0001,256,0,512,1536,1280,768.0001,768.0001,512,512,256,0,0,256,768.0001,768.0001,768.0001,768.0001,512,0,0,0,0,0,0,0,0,0,0,512,2304,3072,3328,4096,4352,4352,4352,4352,4352,4352,4352,4352,4352,4352,4352,4352,4352,4352,4352,4352,4352,4352,4352,4352,4352,4352,4352,4352,4352,4352,4352,4352,4352,4352,4352,4352,4352,4352,4352,4352,4352,4352,4352,4352,4352,4352,4352,4352,4352,4352,4352,4352,4352,4352,4352,4352,4352,4352,4352,4352,4352,4352,4352,4352,4352,4352,4352,4352,4352,4352,4352,4352,4352,4352,4352,4352,4352,4352,4352,4352,4352,4352,4352,4352,4352,4352,4352,4352,4352,4352,4352,4352,4352,4352,4352,4352,4352,4352,4352,4352,4352,4352,4352,4352,4352,3840,3584,3584,3584,3840,3840,3584,3328,2048,1024,512,0,512,1024,1536,1536,1024,768.0001,512,256,0,0,0,0,0,0,512,1024,1280,1024,1024,1024,1024,1024,1536,1792,768.0001,0,512,512,0,0,0,512,512,512,256,0,0,0,0,0,0,0,0,0,0,0,0,0,256,512,1024,1024,1024,1024,1536,1536,768.0001,256,0,256,768.0001,2048,2560,2560,1536,768.0001,512,0,0,0,0,0
0,0,0,0,0,0,0,0,0,0,0,0,0,0,0,0,0,0,0,0,1024,3328,4096,4352,4864,5120,5120,5120,5120,5120,5120,5120,5120,5120,5120,5120,5120,5120,5120,5120,5120,5120,5120,5120,5120,5120,5120,5120,5120,5120,5120,5120,5120,5120,5120,5120,5120,5120,5120,5120,5120,5120,5120,5120,5120,5120,5120,5120,5120,5120,5120,5120,4096,3328,1792,768.0001,1536,3328,3584,3840,3840,3840,3840,3840,3584,3840,4096,4352,4096,3840,3584,3840,3584,3840,4096,4352,4096,3840,3584,3584,3584,3584,3584,3584,3840,3840,3840,3584,3328,3072,2560,2304,3328,3840,3840,3840,3840,3840,3840,3840,4096,4352,4352,4352,4352,4352,4352,4352,4352,4352,4352,4352,4352,4352,4352,4352,4352,4352,4352,4352,4352,4352,4352,4352,4352,4352,4352,4352,4352,4352,4352,4352,4352,4352,4352,4352,4352,4352,4352,4352,4352,4352,4352,4352,4352,4352,4352,4352,4352,4352,4352,4352,4352,4352,4352,4352,4352,4352,4352,4352,4352,4352,4352,4352,4352,4352,4352,4352,4352,4352,4352,4352,4352,4352,4352,4352,4352,4352,4352,4352,4352,4352,4352,4352,4352,4352,4352,4352,4352,4352,4352,4352,4352,4352,4352,4352,4352,4352,4352,4352,4352,4352,4352,4352,4352,4352,4352,4352,4352,4352,4352,4352,4352,4352,4352,4352,4352,4352,4352,4352,4352,4352,4352,4352,4352,4352,4352,4352,4352,4352,4352,4352,4352,4352,4352,4352,4352,4352,4352,4352,4352,4352,4352,4352,4096,3840,3584,3840,3840,3840,3840,3840,2048,512,512,512,512,512,512,512,512,768.0001,768.0001,768.0001,768.0001,768.0001,768.0001,768.0001,768.0001,768.0001,768.0001,768.0001,768.0001,768.0001,768.0001,768.0001,768.0001,768.0001,768.0001,768.0001,768.0001,768.0001,768.0001,768.0001,768.0001,768.0001,768.0001,768.0001,768.0001,768.0001,768.0001,768.0001,768.0001,768.0001,768.0001,768.0001,768.0001,768.0001,768.0001,768.0001,768.0001,768.0001,768.0001,768.0001,768.0001,768.0001,768.0001,768.0001,768.0001,768.0001,768.0001,768.0001,768.0001,768.0001,768.0001,768.0001,768.0001,768.0001,768.0001,768.0001,768.0001,768.0001,768.0001,768.0001,768.0001,768.0001,768.0001,768.0001,768.0001,768.0001,768.0001,768.0001,768.0001,768.0001,768.0001,768.0001,768.0001,768.0001,768.0001,768.0001,768.0001,768.0001,768.0001,768.0001,768.0001,768.0001,768.0001,768.0001,768.0001,768.0001,768.0001,768.0001,768.0001,768.0001,768.0001,768.0001,768.0001,768.0001,768.0001,768.0001,768.0001,768.0001,768.0001,768.0001,512,512,1536,2560,2048,1280,768.0001,512,0,0,0,0,512,1280,1280,1280,1024,768.0001,0,0,0,0,0,0,0,0,0,0,512,2304,3072,3328,4096,4352,4352,4352,4352,4352,4352,4352,4352,4352,4352,4352,4352,4352,4352,4352,4352,4352,4352,4352,4352,4352,4352,4352,4352,4352,4352,4352,4352,4352,4352,4352,4352,4352,4352,4352,4352,4352,4352,4352,4352,4352,4352,4352,4352,4352,4352,4352,4352,4352,4352,4352,4352,4352,4352,4352,4352,4352,4352,4352,4352,4352,4352,4352,4352,4352,4352,4352,4352,4352,4352,4352,4352,4352,4352,4352,4352,4352,4352,4352,4352,4352,4352,4352,4352,4352,4352,4352,4352,4352,4352,4352,4352,4352,4352,4352,4352,4352,4352,4352,4352,4352,3840,3584,3584,3840,4096,4096,3840,3328,2304,1280,512,0,512,768.0001,1536,1536,1280,768.0001,512,256,0,0,0,0,0,0,512,1024,1280,1024,1024,1024,1024,1024,1792,2048,768.0001,0,256,512,0,0,0,512,512,256,0,0,0,0,0,0,0,0,0,0,0,0,0,0,256,768.0001,1024,1024,1024,1024,1280,1280,512,0,0,0,768.0001,1792,2048,2048,1280,512,256,0,0,0,0,0
0,0,0,0,0,0,0,0,0,0,0,0,0,0,0,0,0,0,0,0,1024,3328,4096,4352,4864,5120,5120,5120,5120,5120,5120,5120,5120,5120,5120,5120,5120,5120,5120,5120,5120,5120,5120,5120,5120,5120,5120,5120,5120,5120,5120,5120,5120,5120,5120,5120,5120,5120,5120,5120,5120,5120,5120,5120,5120,5120,5120,5120,5120,5120,5120,5120,4096,3328,1792,768.0001,1536,3328,3584,3840,3840,3840,3840,3840,3584,3840,4096,4352,4096,3840,3584,3840,3584,3840,3840,4096,3840,3840,3840,3840,3840,3840,3840,3840,4352,4864,4352,4096,3584,3328,3072,2560,3072,3584,3584,3584,3584,3584,3584,3584,3840,4096,4096,4352,4352,4352,4352,4352,4352,4352,4352,4352,4352,4352,4352,4352,4352,4352,4352,4352,4352,4352,4352,4352,4352,4352,4352,4352,4352,4352,4352,4352,4352,4352,4352,4352,4352,4352,4352,4352,4352,4352,4352,4352,4352,4352,4352,4352,4352,4352,4352,4352,4352,4352,4352,4352,4352,4352,4352,4352,4352,4352,4352,4352,4352,4352,4352,4352,4352,4352,4352,4352,4352,4352,4352,4352,4352,4352,4352,4352,4352,4352,4352,4352,4352,4352,4352,4352,4352,4352,4352,4352,4352,4352,4352,4352,4352,4352,4352,4352,4352,4352,4352,4352,4352,4352,4352,4352,4352,4352,4352,4352,4352,4352,4352,4352,4352,4352,4352,4352,4352,4352,4352,4352,4352,4352,4352,4352,4352,4352,4352,4352,4352,4352,4352,4352,4352,4352,4352,4352,4352,4352,4352,4352,4096,3840,3584,3840,3840,3840,3840,3584,1792,512,512,512,512,512,512,512,512,768.0001,768.0001,768.0001,768.0001,768.0001,768.0001,768.0001,768.0001,768.0001,768.0001,768.0001,768.0001,768.0001,768.0001,768.0001,768.0001,768.0001,768.0001,768.0001,768.0001,768.0001,768.0001,768.0001,768.0001,768.0001,768.0001,768.0001,768.0001,768.0001,768.0001,768.0001,768.0001,768.0001,768.0001,768.0001,768.0001,768.0001,768.0001,768.0001,768.0001,768.0001,768.0001,768.0001,768.0001,768.0001,768.0001,768.0001,768.0001,768.0001,768.0001,768.0001,768.0001,768.0001,768.0001,768.0001,768.0001,768.0001,768.0001,768.0001,768.0001,768.0001,768.0001,768.0001,768.0001,768.0001,768.0001,768.0001,768.0001,768.0001,768.0001,768.0001,768.0001,768.0001,768.0001,768.0001,768.0001,768.0001,768.0001,768.0001,768.0001,768.0001,768.0001,768.0001,768.0001,768.0001,768.0001,768.0001,768.0001,768.0001,768.0001,768.0001,768.0001,768.0001,768.0001,768.0001,768.0001,768.0001,768.0001,768.0001,768.0001,768.0001,768.0001,768.0001,768.0001,768.0001,1536,2560,2304,1792,1024,512,0,0,0,0,768.0001,2304,2560,2048,1536,768.0001,0,0,0,0,0,0,0,0,0,0,512,2048,3072,3584,4096,4352,4352,4352,4352,4352,4352,4352,4352,4352,4352,4352,4352,4352,4352,4352,4352,4352,4352,4352,4352,4352,4352,4352,4352,4352,4352,4352,4352,4352,4352,4352,4352,4352,4352,4352,4352,4352,4352,4352,4352,4352,4352,4352,4352,4352,4352,4352,4352,4352,4352,4352,4352,4352,4352,4352,4352,4352,4352,4352,4352,4352,4352,4352,4352,4352,4352,4352,4352,4352,4352,4352,4352,4352,4352,4352,4352,4352,4352,4352,4352,4352,4352,4352,4352,4352,4352,4352,4352,4352,4352,4352,4352,4352,4352,4352,4352,4352,4352,4352,4352,4352,4096,3840,3840,3840,4096,4096,3840,3072,2304,1536,512,0,512,768.0001,1536,1536,1024,768.0001,768.0001,512,0,0,0,0,0,0,768.0001,1024,1280,1024,1024,1024,1024,1024,1792,2048,768.0001,0,0,0,0,0,0,512,512,256,0,0,0,0,0,0,0,0,0,0,0,0,0,0,512,768.0001,1024,1024,1280,1280,1280,1024,512,0,0,0,512,1536,1536,1024,512,256,0,0,0,0,0,0
0,0,0,0,0,0,0,0,0,0,0,0,0,0,0,0,0,0,0,0,1024,3328,4096,4352,4864,5120,5120,5120,5120,5120,5120,5120,5120,5120,5120,5120,5120,5120,5120,5120,5120,5120,5120,5120,5120,5120,5120,5120,5120,5120,5120,5120,5120,5120,5120,5120,5120,5120,5120,5120,5120,5120,5120,5120,5120,5120,5120,5120,5120,5120,5120,5120,4096,3328,1792,768.0001,1536,3328,3584,3840,3840,3840,3840,3840,3584,3840,4096,4352,4096,3584,3584,3584,3584,3584,3840,3840,3840,3840,4096,4352,4352,4096,4096,4096,4864,5376,5120,4864,4096,3584,3072,3072,3072,3328,3328,3328,3328,3328,3584,3840,3840,3840,4096,4352,4352,4352,4352,4352,4352,4352,4352,4352,4352,4352,4352,4352,4352,4352,4352,4352,4352,4352,4352,4352,4352,4352,4352,4352,4352,4352,4352,4352,4352,4352,4352,4352,4352,4352,4352,4352,4352,4352,4352,4352,4352,4352,4352,4352,4352,4352,4352,4352,4352,4352,4352,4352,4352,4352,4352,4352,4352,4352,4352,4352,4352,4352,4352,4352,4352,4352,4352,4352,4352,4352,4352,4352,4352,4352,4352,4352,4352,4352,4352,4352,4352,4352,4352,4352,4352,4352,4352,4352,4352,4352,4352,4352,4352,4352,4352,4352,4352,4352,4352,4352,4352,4352,4352,4352,4352,4352,4352,4352,4352,4352,4352,4352,4352,4352,4352,4352,4352,4352,4352,4352,4352,4352,4352,4352,4352,4352,4352,4352,4352,4352,4352,4352,4352,4352,4352,4352,4352,4352,4352,4352,3840,3584,3584,3584,3584,3584,3840,3584,1792,512,512,512,512,512,512,512,512,768.0001,768.0001,768.0001,768.0001,768.0001,768.0001,768.0001,768.0001,768.0001,768.0001,768.0001,768.0001,768.0001,768.0001,768.0001,768.0001,768.0001,768.0001,768.0001,768.0001,768.0001,768.0001,768.0001,768.0001,768.0001,768.0001,768.0001,768.0001,768.0001,768.0001,768.0001,768.0001,768.0001,768.0001,768.0001,768.0001,768.0001,768.0001,768.0001,768.0001,768.0001,768.0001,768.0001,768.0001,768.0001,768.0001,768.0001,768.0001,768.0001,768.0001,768.0001,768.0001,768.0001,768.0001,768.0001,768.0001,768.0001,768.0001,768.0001,768.0001,768.0001,768.0001,768.0001,768.0001,768.0001,768.0001,768.0001,768.0001,768.0001,768.0001,768.0001,768.0001,768.0001,768.0001,768.0001,768.0001,768.0001,768.0001,768.0001,768.0001,768.0001,768.0001,768.0001,768.0001,768.0001,768.0001,768.0001,768.0001,768.0001,768.0001,768.0001,768.0001,768.0001,768.0001,768.0001,768.0001,768.0001,768.0001,768.0001,768.0001,768.0001,768.0001,768.0001,512,256,768.0001,1536,2048,2304,1024,256,0,256,512,768.0001,2304,3840,3840,3072,1792,768.0001,0,0,0,0,0,0,0,0,0,0,512,1792,3072,3840,4352,4352,4352,4352,4352,4352,4352,4352,4352,4352,4352,4352,4352,4352,4352,4352,4352,4352,4352,4352,4352,4352,4352,4352,4352,4352,4352,4352,4352,4352,4352,4352,4352,4352,4352,4352,4352,4352,4352,4352,4352,4352,4352,4352,4352,4352,4352,4352,4352,4352,4352,4352,4352,4352,4352,4352,4352,4352,4352,4352,4352,4352,4352,4352,4352,4352,4352,4352,4352,4352,4352,4352,4352,4352,4352,4352,4352,4352,4352,4352,4352,4352,4352,4352,4352,4352,4352,4352,4352,4352,4352,4352,4352,4352,4352,4352,4352,4352,4352,4352,4352,4352,4352,4096,3840,3840,3840,3840,3584,2560,2304,1792,768.0001,0,256,768.0001,1024,1280,1024,768.0001,768.0001,768.0001,512,256,256,256,256,512,768.0001,1024,1280,1024,1024,1024,1024,1024,1536,1792,768.0001,0,0,0,0,0,0,256,512,512,256,0,0,0,0,0,0,0,0,0,0,0,0,256,512,1024,1024,1024,1280,1536,1536,1024,512,0,0,0,768.0001,1536,1024,512,0,0,0,0,0,0,0,0
0,0,0,0,0,0,0,0,0,0,0,0,0,0,0,0,0,0,0,0,1024,3328,4096,4352,4864,5120,5120,5120,5120,5120,5120,5120,5120,5120,5120,5120,5120,5120,5120,5120,5120,5120,5120,5120,5120,5120,5120,5120,5120,5120,5120,5120,5120,5120,5120,5120,5120,5120,5120,5120,5120,5120,5120,5120,5120,5120,5120,5120,5120,5120,5120,5120,4096,3072,1280,512,1280,3328,3584,3584,3584,3840,3840,3840,3584,3840,3840,4096,4096,3840,3840,3840,3840,3840,3840,3840,3840,3840,3840,3840,4096,4352,4352,4352,5120,5632,5376,5120,4352,4096,3840,3584,3328,3328,3328,3328,3328,3328,3584,3840,3840,3840,4096,4352,4352,4352,4352,4352,4352,4352,4352,4352,4352,4352,4352,4352,4352,4352,4352,4352,4352,4352,4352,4352,4352,4352,4352,4352,4352,4352,4352,4352,4352,4352,4352,4352,4352,4352,4352,4352,4352,4352,4352,4352,4352,4352,4352,4352,4352,4352,4352,4352,4352,4352,4352,4352,4352,4352,4352,4352,4352,4352,4352,4352,4352,4352,4352,4352,4352,4352,4352,4352,4352,4352,4352,4352,4352,4352,4352,4352,4352,4352,4352,4352,4352,4352,4352,4352,4352,4352,4352,4352,4352,4352,4352,4352,4352,4352,4352,4352,4352,4352,4352,4352,4352,4352,4352,4352,4352,4352,4352,4352,4352,4352,4352,4352,4352,4352,4352,4352,4352,4352,4352,4352,4352,4352,4352,4352,4352,4352,4352,4352,4352,4352,4352,4352,4352,4352,4352,4352,4352,4352,4352,4352,4096,3840,3840,3840,3840,3840,4096,4096,2304,512,512,512,512,512,512,512,768.0001,768.0001,768.0001,768.0001,768.0001,768.0001,768.0001,768.0001,768.0001,768.0001,768.0001,768.0001,768.0001,768.0001,768.0001,768.0001,768.0001,768.0001,768.0001,768.0001,768.0001,768.0001,768.0001,768.0001,768.0001,768.0001,768.0001,768.0001,768.0001,768.0001,768.0001,768.0001,768.0001,768.0001,768.0001,768.0001,768.0001,768.0001,768.0001,768.0001,768.0001,768.0001,768.0001,768.0001,768.0001,768.0001,768.0001,768.0001,768.0001,768.0001,768.0001,768.0001,768.0001,768.0001,768.0001,768.0001,768.0001,768.0001,768.0001,768.0001,768.0001,768.0001,768.0001,768.0001,768.0001,768.0001,768.0001,768.0001,768.0001,768.0001,768.0001,768.0001,768.0001,768.0001,768.0001,768.0001,768.0001,768.0001,768.0001,768.0001,768.0001,768.0001,768.0001,768.0001,768.0001,768.0001,768.0001,768.0001,768.0001,768.0001,768.0001,768.0001,768.0001,768.0001,768.0001,768.0001,768.0001,768.0001,768.0001,768.0001,768.0001,768.0001,768.0001,768.0001,512,0,512,768.0001,1536,1792,768.0001,256,256,768.0001,1024,1792,3584,4864,5120,3840,2304,1024,0,0,0,0,0,0,0,0,0,0,256,1536,3072,4096,4352,4352,4352,4352,4352,4352,4352,4352,4352,4352,4352,4352,4352,4352,4352,4352,4352,4352,4352,4352,4352,4352,4352,4352,4352,4352,4352,4352,4352,4352,4352,4352,4352,4352,4352,4352,4352,4352,4352,4352,4352,4352,4352,4352,4352,4352,4352,4352,4352,4352,4352,4352,4352,4352,4352,4352,4352,4352,4352,4352,4352,4352,4352,4352,4352,4352,4352,4352,4352,4352,4352,4352,4352,4352,4352,4352,4352,4352,4352,4352,4352,4352,4352,4352,4352,4352,4352,4352,4352,4352,4352,4352,4352,4352,4352,4352,4352,4352,4352,4352,4352,4352,4352,4096,3840,3840,3840,3584,3072,2048,1792,1280,512,0,0,768.0001,768.0001,1024,768.0001,768.0001,768.0001,768.0001,768.0001,512,512,512,512,512,768.0001,1024,1280,1024,1024,1024,1024,1024,1280,1536,768.0001,0,0,0,0,0,0,0,512,512,512,256,0,0,0,0,0,0,0,0,0,0,0,256,768.0001,1024,1280,1024,1280,1536,1280,1024,512,0,0,0,768.0001,1536,768.0001,256,0,0,0,0,0,0,0,0
0,0,0,0,0,0,0,0,0,0,0,0,0,0,0,0,0,0,0,0,1024,3584,4352,4352,4864,5120,5120,5120,5120,5120,5120,5120,5120,5120,5120,5120,5120,5120,5120,5120,5120,5120,5120,5120,5120,5120,5120,5120,5120,5120,5120,5120,5120,5120,5120,5120,5120,5120,5120,5120,5120,5120,5120,5120,5120,5120,5120,5120,5120,5120,5120,5120,3840,2560,768.0001,0,768.0001,3328,3328,3328,3584,3840,3840,3840,3840,3840,3840,3840,4096,4096,4096,4096,4096,4096,4096,4096,3840,3840,3328,3072,3584,4352,4352,4352,4864,5120,5120,5120,4864,4864,4864,4352,4096,3584,3584,3584,3584,3584,3584,3584,3840,4096,4096,4352,4352,4352,4352,4352,4352,4352,4352,4352,4352,4352,4352,4352,4352,4352,4352,4352,4352,4352,4352,4352,4352,4352,4352,4352,4352,4352,4352,4352,4352,4352,4352,4352,4352,4352,4352,4352,4352,4352,4352,4352,4352,4352,4352,4352,4352,4352,4352,4352,4352,4352,4352,4352,4352,4352,4352,4352,4352,4352,4352,4352,4352,4352,4352,4352,4352,4352,4352,4352,4352,4352,4352,4352,4352,4352,4352,4352,4352,4352,4352,4352,4352,4352,4352,4352,4352,4352,4352,4352,4352,4352,4352,4352,4352,4352,4352,4352,4352,4352,4352,4352,4352,4352,4352,4352,4352,4352,4352,4352,4352,4352,4352,4352,4352,4352,4352,4352,4352,4352,4352,4352,4352,4352,4352,4352,4352,4352,4352,4352,4352,4352,4352,4352,4352,4352,4352,4352,4352,4352,4096,4352,4352,4864,4864,4864,4864,4864,5376,5376,3072,768.0001,256,256,0,256,512,768.0001,768.0001,768.0001,768.0001,768.0001,768.0001,768.0001,768.0001,768.0001,768.0001,768.0001,768.0001,768.0001,768.0001,768.0001,768.0001,768.0001,768.0001,768.0001,768.0001,768.0001,768.0001,768.0001,768.0001,768.0001,768.0001,768.0001,768.0001,768.0001,768.0001,768.0001,768.0001,768.0001,768.0001,768.0001,768.0001,768.0001,768.0001,768.0001,768.0001,768.0001,768.0001,768.0001,768.0001,768.0001,768.0001,768.0001,768.0001,768.0001,768.0001,768.0001,768.0001,768.0001,768.0001,768.0001,768.0001,768.0001,768.0001,768.0001,768.0001,768.0001,768.0001,768.0001,768.0001,768.0001,768.0001,768.0001,768.0001,768.0001,768.0001,768.0001,768.0001,768.0001,768.0001,768.0001,768.0001,768.0001,768.0001,768.0001,768.0001,768.0001,768.0001,768.0001,768.0001,768.0001,768.0001,768.0001,768.0001,768.0001,768.0001,768.0001,768.0001,768.0001,768.0001,768.0001,768.0001,768.0001,512,512,512,512,512,512,512,512,512,512,512,512,768.0001,768.0001,512,512,512,1024,2304,3328,4096,5120,5120,4864,3584,1792,256,0,0,0,0,0,0,0,0,0,256,1280,2560,3840,4352,4352,4352,4352,4352,4352,4352,4352,4352,4352,4352,4352,4352,4352,4352,4352,4352,4352,4352,4352,4352,4352,4352,4352,4352,4352,4352,4352,4352,4352,4352,4352,4352,4352,4352,4352,4352,4352,4352,4352,4352,4352,4352,4352,4352,4352,4352,4352,4352,4352,4352,4352,4352,4352,4352,4352,4352,4352,4352,4352,4352,4352,4352,4352,4352,4352,4352,4352,4352,4352,4352,4352,4352,4352,4352,4352,4352,4352,4352,4352,4352,4352,4352,4352,4352,4352,4352,4352,4352,4352,4352,4352,4352,4352,4352,4352,4352,4352,4352,4352,4352,4352,4096,3840,3840,3840,3584,3328,2304,1024,768.0001,512,0,0,0,256,768.0001,768.0001,768.0001,768.0001,768.0001,768.0001,768.0001,768.0001,768.0001,768.0001,768.0001,768.0001,768.0001,1024,1024,1024,1024,1024,1024,1024,1280,1280,768.0001,0,0,0,0,0,0,0,512,768.0001,512,512,0,0,0,0,0,0,0,0,0,0,0,256,768.0001,1024,1280,1024,1280,1280,1024,768.0001,512,0,0,0,512,1280,1280,768.0001,0,0,0,0,0,0,0,0
