10496,10496,10496,10496,10496,10496,10496,10496,10496,10240,9984,9984,9984,9984,9984,9984,10240,10496,10752,10752,10752,10752,10752,10752,10752,10496,10496,10496,10496,10496,10496,10496,10496,9728,7680,5888,7168,7680,15104,18688,18688,20480,20992,24064,28672,31232,28928,28928,32512,34816,32768,32768,32768,33536,33536,33536,33792,29952,18176,24832,26624,28160,29952,31744,34048,35328,38400,41216,41216,41472,40448,39424,38912,38400,38144,37632,38144,36864,43520,51456,52992,43264,32256,26368,23296,24320,24320,23808,25088,24064,24064,24320,24576,24320,22784,23296,31744,38912,40192,45312,49920,39936,26624,24320,26368,33280,27648,30208,32512,34304,36352,38400,38912,38144,37632,37120,35840,36096,37120,34816,25856,23296,22528,22272,22016,22016,21760,21504,21504,21248,21248,21248,21248,20736,20736,20736,20736,19712,19712,19712,19456,18944,18688,18432,18432,17664,15360,13312,13824,12544,14336,20480,20992,21248,22272,23552,24832,26880,28672,29440,30720,32512,33024,33280,33792,34304,34816,35072,35328,35840,35840,35840,35840,36096,36864,37376,37632,37632,37888,37888,37888,37888,37632,37376,37120,36352,35328,34816,34304,33792,33536,33536,32768,32512,32512,33024,33792,34560,35584,36096,37120,37888,39168,39680,40192,40192,40704,41216,41728,41984,41728,41728,41728,41984,41728,41728,41728,41472,41472,41472,41472,41472,41472,41728,41728,41728,41728,41728,41728,41984,41984,42496,42752,42752,43264,43520,43776,44544,45312,46080,46336,46592,47104,47872,48384,48640,48896,48896,49408,49152,49408,49920,49920,50432,51200,51456,51712,53504,54016,54528,54784,55296,55296,54784,54784,54784,54784,55296,55552,55552,55552,55552,55552,55552,55552,55552,55552,54528,54016,54016,53504,52992,52992,52480,52480,52480,52480,52736,52736,52736,52736,52992,52992,52992,52736,52480,52736,52480,52736,52480,52224,51456,51200,50944,50688,49664,49152,48640,47872,48128,48128,47872,47616,47616,47872,48128,48640,49152,49408,49920,50432,50688,51456,52480,52992,53760,54272,55040,55040,55040,54528,54528,54528,54272,54016,52992,52992,52736,52736,52736,52480,52480,52480,52480,52480,52224,51968,51968,51968,51968,51712,51712,51712,51456,51456,51456,51456,51456,51456,51200,51200,51200,51200,51200,51200,50688,50688,50688,50688,50688,50688,50688,50688,50176,49408,40704,47616,48128,47872,50176,51200,51200,51200,51200,51200,51456,51712,51456,51456,51456,51456,51456,51456,51456,51456,51456,51456,51456,51456,51456,51456,51712,51712,51712,51712,51712,51712,51712,51712,51712,51712,51712,51712,51712,51712,51712,51712,51712,51712,51712,51712,51712,51712,51712,51712,51712,51712,51712,51712,51712,50432,46848,53248,51200,51200,52480,48640,52736,52480,52480,52736,52480,52480,52480,52480,52480,52480,52480,52480,52736,52992,52992,52992,52992,52992,52992,52992,52736,52736,52736,52736,52736,52736,52736,52992,53504,53504,53504,53504,53248,53248,53248,53248,53248,53248,53504,53248,54016,49664,50944,49664,45568,50944,53504,53248,53504,53248,53248,53504,53504,53504,53504,53504,53504,53504,53504,53504,53504,53504,53504,53504,53504,53504,53504,53504,53248,53504,53504,53504
10496,10496,10496,10496,10496,10496,10496,10496,10496,10240,9984,9984,9984,9984,9984,9984,10240,10496,10752,10752,10752,10752,10752,10752,10752,10496,10496,10496,10496,10496,10496,10496,10496,9984,7936,6144,7424,7936,13312,17408,18944,20224,23040,27136,30464,30208,28416,28416,31744,34816,32768,32768,32768,33536,33536,33536,33792,34304,20224,18432,26624,28160,29952,31744,34048,35328,38400,41216,41216,41472,40448,39424,38656,37888,37632,37632,38400,37888,39424,45568,54016,50944,41216,31232,24576,23808,23808,23808,24320,24064,24064,24320,24064,23552,23552,32512,41984,41728,45056,48128,41472,25088,24576,25088,26624,34048,28160,30208,32512,34304,36352,38400,38912,38144,37632,37120,35584,35584,36864,34816,25856,23296,22528,22272,22016,22016,21760,21504,21504,21248,21248,21248,21248,20736,20736,20480,20224,19968,19712,19712,19456,18944,18688,18432,18432,17664,15872,13824,14336,12544,13824,20224,20224,19968,21504,22784,24576,26624,28416,29696,30720,32000,32512,33024,33280,33792,34304,34560,35072,35584,35840,35840,35840,36608,36864,37632,37888,37888,38144,38144,38144,38144,37888,37632,37376,36352,35328,34816,34304,33792,33536,33536,32768,32512,32512,33024,34048,34560,35840,36352,37376,38144,39424,39936,40192,40704,40960,41472,41984,41984,41728,41728,41728,41984,41728,41728,41728,41472,41472,41472,41472,41472,41472,41728,41728,41728,41728,41728,41728,41984,41984,42496,42752,43008,43264,43776,44288,44544,45312,46080,46592,46848,47360,47872,48384,48640,48896,49152,49664,49408,49664,49664,50176,50688,51456,51712,52480,53760,54016,54528,54784,54784,54528,54528,54528,54528,54528,54784,55296,55552,55552,55552,55552,55296,55296,55296,54784,54528,53760,53504,53248,52992,52992,52480,52480,52480,52480,52480,52480,52736,52736,52736,52992,52736,52736,52480,52736,52992,52992,52992,52736,52480,51712,51456,51200,50688,49920,49152,49152,49152,48640,48640,47872,47872,47872,48640,48896,49152,49664,49920,50176,50432,51456,52224,52736,53248,54272,54784,55040,54784,54528,54528,54528,54272,54016,53504,52736,52736,52736,52736,52736,52736,52480,52480,52480,52224,51968,51968,51968,51968,51968,51712,51712,51456,51456,51456,51456,51456,51456,51200,51200,51200,51200,51200,51200,50688,50688,50688,50688,50688,50688,50688,50688,50432,49920,40448,47104,48128,47872,50176,51200,51200,51200,51200,51200,51456,51712,51712,51456,51456,51456,51456,51456,51456,51456,51456,51456,51456,51456,51456,51456,51712,51712,51712,51712,51712,51712,51712,51712,51712,51712,51712,51712,51712,51712,51712,51712,51712,51712,51712,51712,51712,51712,51712,51712,51712,51712,51712,51712,51712,50688,46592,52992,51200,51200,52480,48896,52480,52480,52480,52736,52480,52224,52224,52224,52224,52224,52224,52480,52736,52736,52736,52736,52736,52736,52736,52736,52992,52992,52992,52992,52992,52992,52992,52992,53504,53504,53504,53504,53248,53248,53248,53248,53248,53248,53504,53248,54016,49664,50944,49664,45568,50944,53248,53248,53504,53248,53504,53504,53504,53504,53504,53504,53504,53504,53504,53504,53504,53504,53504,53504,53504,53504,53504,53504,53248,53504,53504,53504
10496,10496,10496,10496,10496,10496,10496,10496,10496,10240,9984,9984,9984,9984,9984,9984,10240,10752,10752,10752,10752,10752,10752,10752,10752,10496,10496,10496,10496,10496,10496,10496,10752,10496,8192,6400,7680,8192,13056,17664,20224,20736,26112,30464,30976,29184,28416,29184,32256,34816,33024,33024,32768,33536,33792,33536,33792,34816,25856,19456,27648,28160,29952,31744,34048,35328,38400,41472,41472,41472,40448,39424,38656,37888,37632,37632,38144,36608,37632,39168,48128,54272,50944,40448,30208,25600,24064,23808,23808,24064,24320,24320,23552,24064,33792,44032,43776,44032,48640,40960,27904,25344,24064,25344,27136,35584,29184,30208,31744,34304,36352,38400,38912,37888,37376,36864,35584,35328,36352,34560,25600,23296,22528,22272,22016,22016,21760,21504,21504,21248,21248,21248,21248,20480,20480,20224,19968,19968,19712,19712,19456,18944,18688,18432,18432,17664,15872,13824,14848,13056,13312,19712,19456,19712,20992,22528,24576,26624,28416,29440,29952,31232,31744,32256,32768,33280,33792,34304,34560,35328,35584,35584,35584,36608,37120,37632,38144,38656,38656,38912,38912,38656,38656,38144,37632,36352,35328,35072,34560,34304,33792,33536,33536,33024,32768,33280,34304,35072,35840,36608,37632,38656,39680,40192,40192,40704,41216,41728,42496,41984,41984,41984,41984,41984,41984,41728,41728,41728,41472,41472,41472,41472,41472,41728,41728,41728,41728,41728,41728,41984,41984,42496,42752,43008,43520,43776,44288,44800,45568,46336,46592,47104,47872,48128,48640,48896,49152,49664,49920,49408,49408,49920,50432,51200,51712,52224,52992,53760,54016,54272,54272,54016,54016,54016,54016,54528,54528,54784,55296,55296,55552,55552,55296,55296,55296,54784,54528,54272,53760,52992,52992,52992,52992,52480,52480,52480,52480,52480,52480,52480,52480,52480,52736,52736,52736,52480,52736,52992,53248,53248,52992,52736,52480,51712,51456,51456,50688,49920,49664,49408,49408,49152,48128,48640,48640,48896,49152,49408,49664,49920,50176,50432,50944,51968,52480,52992,54016,54528,55040,54784,54528,54528,54528,54272,54016,53504,52992,52992,52736,52736,52736,52736,52736,52480,52480,52224,51968,51968,51968,51968,51968,51968,51712,51712,51712,51456,51456,51456,51456,51456,51456,51456,51456,51200,51200,51200,51200,51200,51200,50688,51200,50688,50688,51200,50176,40192,46592,48128,47872,50176,51200,51200,51200,51200,51200,51456,51712,51712,51712,51712,51712,51456,51456,51456,51456,51456,51456,51456,51456,51456,51456,51712,51712,51712,51712,51712,51712,51712,51712,51712,51712,51712,51712,51712,51712,51712,51712,51712,51712,51712,51712,51712,51712,51712,51712,51712,51712,51712,51712,52224,50944,46592,52736,51456,51200,52224,49152,52224,52736,52480,52736,52480,52224,52224,52224,52224,52224,52224,52480,52736,52736,52736,52736,52736,52736,52736,52992,52992,53248,53248,53248,53248,53248,53248,53248,53504,53504,53504,53504,53248,53248,53248,53248,53248,53248,53504,53248,54016,49920,50944,49920,45568,50944,53248,53504,53504,53248,53504,53504,53504,53504,53504,53504,53504,53504,53504,53504,53504,53504,53504,53504,53504,53504,53504,53504,53248,53504,53504,53504
10496,10496,10496,10496,10496,10496,10496,10496,10496,10240,10240,10240,10240,10240,10240,10240,10240,10752,10752,10752,10752,10752,10752,10752,10752,10496,10496,10496,10496,10496,10496,10496,10752,10496,8448,6912,7936,8448,14336,18944,20736,24064,28928,31232,30720,29184,29184,30208,33024,35072,33280,33280,32768,33792,33792,33536,33792,34048,32768,21760,27392,28160,29952,31744,34048,35072,38656,41472,41728,41728,40704,39424,38400,37120,37120,38144,37376,33536,36352,37120,41728,49664,53760,47616,37632,28672,25344,24320,24320,24320,24064,23552,25088,32768,44032,45312,43264,45824,42496,26112,21248,24320,23808,24320,25600,36352,29696,29952,31744,34560,36352,38400,38912,37632,36864,36352,35072,35328,36096,34304,25600,22784,22272,22016,22016,22016,21760,21504,21504,21248,21248,21248,20736,20480,20480,20224,19968,19968,19712,19712,19456,18944,18688,18432,18432,17664,15872,13824,15104,13056,13312,19712,19456,19968,21248,23040,24576,26624,28160,29440,29952,30464,30720,31488,32256,33024,33536,33792,34560,35328,35584,35584,35584,36608,37120,37632,38400,38912,38656,38912,38912,38912,38656,38400,38144,36864,36096,35328,34816,34560,34304,34304,33536,33280,33024,33536,34560,35328,36096,36864,37888,38912,39680,40192,40704,40704,41216,41728,42752,41984,41984,41984,42496,41984,41984,41728,41728,41728,41472,41472,41472,41472,41472,41728,41728,41728,41728,41728,41728,41984,41984,42496,42752,43520,43520,43776,44288,44800,45568,46336,46592,47104,47872,48384,48896,49152,49664,49920,50432,49920,49664,50432,50944,51456,51712,52992,53504,53504,54016,54016,54016,53760,54016,54016,54016,54272,54528,54784,54784,55296,55296,55296,55296,54784,54784,54784,54528,54016,53760,52992,52992,52992,52992,52480,52480,52480,52480,52480,52480,52480,52480,52480,52736,52736,52480,52480,52736,52992,53248,53248,53248,53248,52992,52736,52224,52224,51456,50688,50432,49920,49920,49408,48896,48896,48896,48896,49152,49408,49664,49920,50176,50432,50944,51456,52480,52992,53760,54528,54784,54784,54528,54528,54528,54272,54016,53504,52992,52992,52736,52736,52736,52736,52736,52480,52480,52224,52224,52224,52224,52224,52224,52224,51968,51712,51712,51456,51456,51456,51456,51456,51456,51456,51456,51200,51200,51200,51200,51200,51200,50688,51200,50944,50944,51200,50432,39936,46848,48128,47872,50432,51200,51200,51200,51200,51200,51456,51712,51712,51712,51712,51712,51456,51456,51456,51456,51456,51456,51456,51456,51456,51456,51712,51712,51712,51712,51712,51712,51712,51712,51712,51712,51712,51712,51712,51712,51712,51712,51712,51712,51712,51712,51712,51712,51712,51712,51712,51712,51712,51712,52224,50944,46592,52224,51456,51200,51968,49152,51968,52736,52224,52480,52224,52224,52224,52224,52224,52224,52224,52224,52480,52736,52736,52736,52736,52736,52736,52736,52992,52992,52992,52992,52992,52992,52992,52992,53504,53504,53504,53504,53248,53248,53248,53248,53248,53248,53504,53248,53760,49920,50688,49920,45568,50944,53248,53504,53504,53248,53504,53504,53504,53504,53504,53504,53504,53504,53504,53504,53504,53504,53504,53504,53504,53504,53504,53760,53504,53760,53760,53760
10752,10752,10752,10752,10752,10752,10752,10752,10752,10752,10752,10752,10752,10752,10752,10752,10752,10752,10752,10752,10752,10752,10752,10752,10752,10752,10752,10752,10752,10752,10752,10752,10752,10240,8704,6400,8192,8704,13824,19968,24320,28928,32000,30208,30464,29440,29952,31232,33536,34304,33792,33536,34304,34048,33792,33536,33792,34048,34816,24832,26880,28672,30208,32256,34048,35072,38400,42496,42496,41728,41216,39424,38656,36864,37120,37888,35584,20736,30720,38144,37632,42752,52224,54528,46848,36352,26624,25088,24832,24576,23552,23040,31232,44288,45056,43520,47104,41216,26880,21248,21760,23040,23040,24320,25088,36352,29440,29952,31488,34304,36352,37888,38144,37120,35840,35584,35072,35328,35840,34048,25600,22528,22016,22016,21760,21760,21760,21504,21504,21248,21248,21248,20736,20480,20480,20224,19968,19968,19712,19712,19712,19456,18944,18688,18432,18176,15872,14336,13312,13056,14336,19456,19712,19968,21248,23296,24832,26624,27904,29440,29952,29952,29952,30720,31744,32512,33024,33280,34304,35072,35840,36096,36864,36864,37120,37888,38400,39424,40192,40192,40192,39168,39168,38400,37888,37632,36864,35584,35328,35072,34816,35072,34048,33792,33536,34304,35328,35840,36864,37888,38656,39424,39936,40192,40960,40960,41472,41728,42752,41984,42496,42496,42496,42496,41984,41984,41984,41728,41728,41472,41472,41472,41472,41728,41984,41984,41984,41984,41984,42496,42496,42496,42752,43008,43520,44288,44544,44800,45568,46336,46848,47104,47872,48384,48896,49152,49664,49920,50432,49920,50688,50944,51200,51968,51968,52736,53248,53248,53504,53504,53760,53504,53760,54016,54272,54272,54528,54784,54784,55296,55296,55296,54784,54784,54528,54528,54272,54016,53504,53504,52992,52992,52992,52480,52480,52480,52480,52736,52736,52480,52480,52480,52480,52480,52480,52480,52736,53248,53248,53504,53504,54016,54016,53504,53504,52480,52480,52224,51712,51456,50688,49664,49408,49152,49152,49152,49152,49408,49664,49920,50176,50432,50688,51456,52480,52736,53760,54272,54784,54784,54528,54528,54528,54528,54272,53760,52992,52992,52992,52736,52736,52736,52736,52736,52736,52480,52480,52480,52480,52480,52480,52480,52224,51712,51712,51712,51712,51712,51712,51712,51712,51712,51712,51712,51712,51712,51456,51456,51456,50944,51456,51456,51456,51456,50688,41728,47104,48640,48128,50688,51456,51456,51456,50944,51456,51712,51712,51712,51712,51712,51712,51712,51712,51712,51712,51712,51712,51712,51712,51712,51712,51712,51712,51712,51712,51712,51712,51712,51712,51712,51712,51712,51712,51712,51712,51712,51712,51712,51712,51712,51712,51712,51712,51712,51712,51712,51712,51712,51712,52224,51456,46592,52224,51200,50944,52480,48896,51968,52480,51968,52224,52224,52224,52224,52224,52224,52224,52224,52224,52224,52480,52480,52480,52480,52480,52480,52480,52480,52480,52480,52480,52480,52480,52480,52480,52992,53248,53248,53248,53248,53248,53248,53248,53248,53248,53248,52992,53504,49664,50432,49664,45568,50944,53248,53504,53248,53248,53504,54016,53504,53504,53504,53504,53504,53504,53504,53504,53248,53248,53248,53504,53504,53504,53504,53760,54016,54016,54016,54272
10752,10752,10752,10752,10752,10752,10752,10752,10752,10752,10752,10752,10752,10752,10752,10752,10752,10752,10752,10752,10752,10752,10752,10752,10752,10752,10752,10752,10752,10752,10752,10752,10752,10496,8960,6912,8192,8960,14848,21760,28160,30720,32512,30464,29952,29440,29952,31488,33792,34560,34304,34048,34304,34560,34048,33536,33792,33536,36352,25856,28672,28672,30208,32256,34048,34816,38656,42496,42752,42496,41216,39424,38656,37888,36352,37120,36096,17920,25856,34304,37888,40192,44800,54016,54784,44544,33280,27136,24064,20736,22784,30976,44288,45824,42752,46336,41728,28672,21248,21248,22016,22528,23040,23808,24832,36352,29440,29952,31744,34304,36096,37632,37632,36864,35328,35072,34816,35072,35328,33792,25600,22528,22016,21760,21760,21760,21760,21504,21504,21248,21248,21248,20736,20480,20480,20224,19968,19968,19712,19712,19712,19456,18944,18688,18432,18176,15872,14336,13824,13056,14336,19456,19968,19712,20992,23040,24832,26368,27904,29184,29952,29696,29952,30720,31744,32256,32768,33024,33792,35072,35840,36864,37120,37120,37376,37888,38400,39680,39680,39680,39680,39424,38912,37888,37376,37120,36608,35840,35584,35328,35072,34816,34560,34048,33792,34560,35584,36096,37120,38144,38912,39424,39936,40192,40960,41216,41472,41984,42752,42752,42496,42496,42496,42496,41984,41984,41984,41728,41728,41472,41472,41472,41472,41728,41984,41984,41984,41984,41984,42496,42496,42752,43008,43008,43520,44288,44544,45056,45568,46592,46848,47104,47872,48384,48896,49152,49664,49920,50432,50432,50944,50944,51456,52224,52224,52736,53504,52992,52992,52992,53504,53504,53760,54016,54272,54272,54528,54784,54784,55296,55296,54784,54784,54784,54528,54528,54272,54016,53504,53504,52992,52992,52992,52736,52480,52480,52480,52736,52736,52480,52480,52480,52480,52480,52480,52480,52736,53248,53504,54016,54016,54272,54016,53504,53504,53248,52992,52736,52480,51712,51200,49920,49664,49408,49408,49152,49152,49408,49664,49920,50176,50432,50688,51200,52480,52736,53760,54272,54784,54784,54528,54528,54528,54528,54272,53760,52992,52992,52992,52992,52736,52736,52736,52736,52736,52736,52480,52480,52480,52480,52480,52480,52480,51712,51712,51712,51712,51712,51712,51712,51712,51712,51968,51968,51968,51968,51968,51968,51968,50944,51968,51712,51712,51712,50688,41728,47104,48640,48640,50688,51712,51712,51712,51712,51712,51712,51712,51712,51712,51712,51712,51712,51712,51712,51712,51712,51712,51712,51712,51712,51712,51712,51712,51712,51712,51712,51712,51712,51712,51712,51712,51712,51712,51712,51712,51712,51712,51712,51712,51712,51712,51712,51712,51712,51712,51712,51712,51712,51712,52224,51456,46592,51968,51456,50688,52224,48640,51968,52224,52224,52480,52224,52224,52224,52224,52224,52224,52224,52224,52224,52224,52224,52224,52224,52224,52224,52224,52224,52224,52224,52224,52224,52224,52224,52480,52992,52992,52992,52992,52992,52992,52992,52992,52992,52992,52992,52736,53248,49408,50432,49664,45312,50944,53248,53504,53248,53248,54016,54016,53504,53504,53504,53504,53504,53504,53504,53504,53248,53248,53248,53504,53504,53504,53504,53760,54016,54016,54016,54528
10752,10752,10752,10752,10752,10752,10752,10752,10752,10752,10752,10752,10752,10752,10752,10752,10752,10752,10752,10752,10752,10752,10752,10752,10752,10752,10752,10752,10752,10752,10752,10752,10752,10496,8960,6912,8192,7680,15360,25856,30720,31744,31232,30464,29952,29440,29952,31488,33792,34560,34304,34048,34304,34560,34048,33536,33792,33792,37632,28416,28416,28672,30208,32256,34048,35072,39168,43008,43008,42752,41728,40448,38912,38144,36608,37120,36096,19456,23040,29696,35328,36608,39424,48128,56064,52992,41984,32256,24576,21760,32000,44032,46080,43008,46848,42240,28160,21760,21504,21760,22016,22528,23040,23808,24832,36096,29440,29696,31232,34048,35328,36608,36864,36352,34560,34816,34304,34560,34816,33280,25088,22528,22016,21760,21760,21760,21760,21504,21248,21248,21248,20736,20480,20480,20224,20224,20224,19968,19968,19968,19968,19712,19456,18944,18688,18176,15872,14592,13824,13056,14336,19456,19968,19456,20480,22528,23808,25600,27136,28672,29184,29696,29696,30208,31232,31744,32512,32768,33536,35584,36608,37120,37376,37376,37632,37888,38400,38912,39168,39424,39424,38912,38144,37632,37120,36352,35840,35584,35328,35072,34816,34304,34304,34048,33792,34560,35584,36096,37120,38144,38912,39680,39936,40960,41216,41472,41728,41984,42752,42752,43008,43008,42752,42752,42496,41984,41984,41728,41472,41216,41216,41216,41216,41472,41728,41728,41984,41984,41984,42496,42496,42752,43008,43264,43776,44544,44544,45056,45568,46592,47104,47104,47872,48384,48896,49152,49664,49920,50432,50432,50944,50944,51456,52224,52224,52480,52992,52736,52736,52736,52992,53504,53504,53760,54016,54272,54272,54528,54784,54784,54784,54784,54784,54784,54784,54528,54272,54016,53760,53760,53248,52992,52992,52736,52736,52736,52736,52736,52736,52480,52480,52480,52480,52480,52480,52480,52992,53248,53504,54016,54016,54272,54272,54272,54272,54016,53248,53248,52992,52224,51456,50944,50432,49920,49664,49664,49408,49664,49664,50432,50176,50432,50944,51968,52480,52992,53760,54272,54784,54784,54528,54528,54528,54528,54272,53760,52992,52736,52736,52736,52736,52736,52736,52736,52736,52480,52480,52480,52480,52480,52480,52480,52480,51712,51712,51712,51712,51712,51712,51712,51712,51712,51968,51968,51968,51968,51968,51968,51968,50944,51968,51712,51712,51712,50944,41984,47104,48896,48640,50944,51968,51712,51968,51456,51712,51712,51712,51712,51712,51712,51712,51712,51712,51712,51712,51712,51712,51712,51712,51712,51712,51712,51712,51712,51712,51712,51712,51712,51712,51712,51712,51712,51712,51712,51712,51712,51712,51712,51712,51712,51712,51712,51712,51712,51712,51712,51712,51712,51456,51968,51456,46592,51968,51712,50688,51968,48640,51712,51968,52224,52480,52480,52224,52224,52224,52224,52224,52224,52224,52224,52224,52224,52224,52224,52224,52224,52224,52224,52224,52224,52224,52224,52224,52224,52480,52992,52992,52992,52992,52992,52992,52992,52992,52992,52992,52992,52992,53248,49408,50432,49664,45824,50432,53504,53504,53248,53248,54016,54016,53504,53504,53504,53504,53504,53504,53504,53504,53248,53248,53248,53504,53504,53504,53504,53760,54016,54016,54016,54528
10752,10752,10752,10752,10752,10752,10752,10752,10752,10752,10752,10752,10752,10752,10752,10752,10752,10752,10752,10752,10752,10752,10752,10752,10752,10752,10752,10752,10752,10752,10752,10752,10752,10496,8960,6912,8192,9728,16640,29696,33280,30464,29696,30464,30464,29440,29952,31488,33792,34560,34304,34048,34304,34560,34048,33536,33792,34304,37120,29184,26368,28672,30208,32256,34048,35584,39168,43008,43520,43520,42496,40704,39168,37376,37632,37888,35584,21760,23040,26112,30464,34560,38400,39936,50176,55552,50176,40448,28928,32000,43264,46336,43520,44544,41472,29184,23808,22528,22528,20480,21504,22528,23040,23808,24832,36096,29440,29696,31232,33536,34816,35840,36096,35584,34304,34304,34048,34048,34560,33024,24832,22272,21760,21504,21504,21760,21760,21504,21248,21248,20736,20736,20480,20480,20224,20224,20224,20224,20224,20224,19968,19712,19456,18944,18944,18432,15872,14592,13824,13056,14336,18944,19712,18944,20224,22272,23552,25344,26880,28416,29184,29184,29440,29952,30976,31488,32256,32512,33280,35328,36096,36864,37120,37120,37376,37632,38144,38400,38912,38912,38912,38144,37888,37120,36608,35840,35584,35328,35072,34816,34304,34048,34048,34048,33792,34560,35584,36096,37120,38144,38912,39680,39936,40960,41472,41984,41984,42496,43008,43264,43008,43008,43264,43008,42752,42496,41984,41728,41472,41216,41216,41216,41216,41472,41728,41728,41984,41984,41984,42496,42496,42752,43008,43264,43776,44544,44544,45056,45568,46592,47104,47104,47872,48384,48896,49152,49664,49920,50432,50688,50944,50944,51456,51968,52224,52480,52992,52480,52480,52480,52480,52992,53504,53760,54016,54016,54272,54528,54528,54784,54784,54528,54528,54528,55296,54784,54016,54016,54016,53760,53248,53248,53248,52992,52992,52736,52736,52736,52736,52736,52736,52480,52480,52480,52480,52480,52992,53248,53504,54016,54272,54528,54528,54528,54528,54528,54016,53504,53248,52992,52224,51456,50944,50688,50432,49920,49664,49920,49920,50432,50432,50432,50944,52224,52480,52992,53760,54528,54784,54784,54528,54528,54528,54528,54272,53760,52992,52736,52736,52736,52736,52736,52736,52736,52736,52480,52480,52480,52480,52480,52480,52480,52480,51712,51712,51712,51712,51712,51712,51712,51712,51712,51968,51968,51968,51968,51968,51968,51968,51456,51968,51712,51712,51712,50944,42496,47104,48896,48896,50944,51968,51712,51968,51968,51712,51712,51712,51712,51712,51712,51712,51712,51712,51712,51712,51712,51712,51712,51712,51712,51712,51712,51712,51712,51712,51712,51712,51712,51712,51712,51712,51712,51712,51712,51712,51712,51712,51712,51712,51712,51712,51712,51712,51712,51712,51712,51712,51712,51456,51968,51456,46592,51968,51968,50688,51968,48384,51712,51968,52480,52480,52480,52224,52224,52224,52224,52224,52224,52224,52224,52224,52224,52224,52224,52224,52224,52224,52224,52224,52224,52224,52224,52224,52224,52480,52992,52992,52992,52992,52992,52992,52992,52992,52992,52736,52736,52992,52992,49408,50432,49664,46080,49920,53504,53248,53248,53248,54016,54016,53504,53504,53504,53504,53504,53504,53504,53504,53248,53248,53248,53504,53504,53504,53504,53760,54272,54528,54528,54528
10752,10752,10752,10752,10752,10752,10752,10752,10752,10752,10752,10752,10752,10752,10752,10752,10752,10752,10752,10752,10752,10752,10752,10752,10752,10752,10752,10752,10752,10752,10752,10752,11008,10752,9216,7168,8704,8704,18432,31488,30720,30720,30976,30208,30464,29440,29952,31488,33792,34816,34560,34304,34560,34560,34048,33536,33792,33536,35840,25088,26624,28928,30464,32512,34304,35840,38912,42752,43776,42496,42496,40960,39424,38400,37632,37120,37120,24320,24320,24832,25344,32000,36864,40448,42752,53504,57344,50176,39168,41216,47360,44288,45056,42496,29952,23552,23296,22272,20736,19456,21504,22272,23296,23552,23552,35840,29696,29440,31232,33280,34304,34816,35584,34816,33536,33792,33280,33536,33536,32512,24576,22016,21760,21504,21504,21504,21504,21248,21248,20736,20736,20736,20480,20224,20224,20224,20224,20224,20224,20224,20224,19968,19712,18944,18944,18432,15872,14592,13824,13056,13824,18944,19712,18432,19712,21248,22784,24320,26112,27648,28672,28928,29184,29440,30208,30976,31488,32256,33024,35072,35840,36608,36864,36864,36864,37120,37632,37888,38144,38144,38144,37632,37376,36352,36096,35328,35328,35072,34304,34048,34048,34048,34048,34048,33792,34560,35584,36096,37120,38144,38912,39424,40192,40960,41728,41728,41984,42752,43264,43520,43264,43264,43264,43008,43008,42752,41984,41728,41472,41216,41216,41216,41216,41472,41728,41728,41984,41984,41984,42496,42496,42752,43008,43008,43520,44544,44544,44800,45312,46592,47104,47104,47872,48384,48896,49152,49664,49920,50432,50688,51456,50944,51456,51968,52224,52480,52480,52480,52480,52480,52480,52736,52992,53760,54016,54016,54272,54528,54528,54784,54784,54784,54784,54784,54784,54272,54016,53760,53504,52992,52736,52992,52992,52992,52992,52992,52992,52992,52736,52736,52736,52480,52480,52480,52480,52480,52736,53248,53248,53504,54016,54272,54528,54784,54784,54784,54784,54528,54016,53504,52992,52480,51712,51456,50944,50688,50432,50432,50432,50688,50432,50432,51200,51968,52480,52992,54016,54272,54784,54528,54272,54528,54528,54528,54272,53760,52992,52736,52736,52736,52736,52736,52736,52736,52736,52480,52480,52480,52480,52480,52480,52480,52480,52224,51968,51968,51968,51712,51712,51712,51712,51968,52224,52224,52224,51968,51968,51968,51968,51968,51968,51968,51968,51968,51456,42752,46848,48896,48896,50944,51968,51712,51968,51968,51712,51712,51712,51712,51712,51712,51712,51712,51712,51712,51712,51712,51712,51712,51712,51712,51712,51712,51712,51712,51712,51712,51712,51712,51712,51712,51712,51712,51712,51712,51712,51712,51712,51712,51712,51712,51712,51712,51712,51712,51968,51968,51968,51456,51456,52224,52992,44288,52224,51968,50688,51968,48384,51712,51968,52480,52480,52480,52224,52224,52224,52224,52224,52224,52224,52480,52480,52480,52480,52480,52480,52480,52480,52480,52480,52480,52480,52480,52480,52480,52736,52992,52992,52992,52992,52992,52992,52992,52992,52992,52736,52736,53248,52992,49664,50432,49664,46592,49152,54016,53248,53504,53504,53504,54016,53504,53504,53504,53504,53504,53504,53504,53504,53504,53504,53504,54016,54016,54016,54016,54016,54272,54528,54528,54528
10752,10752,10752,10752,10752,10752,10752,10752,10752,10752,10752,10752,10752,10752,10752,10752,10752,10752,10752,10752,10752,10752,10752,10752,10752,10752,10752,10752,10752,10752,10752,10752,11008,10752,9216,7168,8704,8704,18176,30976,30720,30720,30720,30208,30464,29440,29952,31488,33792,34816,34560,34304,34560,34560,33792,33280,33792,34304,30720,18176,26880,28928,30464,32512,34304,35840,38912,42752,43776,42496,42496,40960,39424,38400,37632,37376,37376,26368,24320,23552,25088,26624,32000,37120,39168,45568,54016,57344,47872,40960,41728,46848,41728,29952,23552,24320,22528,22016,20736,18944,21248,22016,23040,23296,23296,35584,29440,29440,30720,32256,33024,34048,34816,34304,33280,33280,33024,32768,33280,32256,24320,21760,21248,21248,21504,21504,21504,21248,21248,20736,20736,20480,20480,20224,20224,20224,20224,20224,20224,20224,20224,19712,19456,18944,18944,18688,15872,14592,13824,13056,13824,18944,19712,18176,19200,20736,22016,23808,25344,27392,28160,28672,28928,29184,29952,30720,31232,31744,33024,34816,35584,36096,36608,36096,36608,36864,37120,37888,37888,38144,38144,37632,37120,36352,36096,35072,34816,34304,34048,33792,33792,33792,34048,33792,33792,34560,35584,36096,37120,38144,38912,39168,40192,41216,41984,41984,42752,43264,43520,43520,43520,43520,43264,43264,42752,42496,41984,41984,41472,41216,41216,41216,41216,41472,41728,41728,41984,41984,41984,42496,42496,42752,43008,43008,43520,44288,44288,44800,45312,46336,46848,47104,47872,48384,48896,49152,49664,49920,50432,50688,51456,50944,51456,51968,52224,52224,52736,52480,52480,52480,52736,52736,52992,53504,54016,54016,54272,54528,54784,54784,54784,54784,54528,55296,54528,54016,53504,53504,52736,52480,52480,52736,52736,52736,52992,52992,52992,52736,52736,52736,52480,52480,52480,52480,52480,52480,52736,52992,52992,53248,53504,54272,54528,55040,55296,55296,55296,55040,54528,54016,53504,53248,52480,52480,51712,51456,50944,50944,50688,50944,50432,50688,51456,51968,52736,53248,54016,54272,54784,54784,54528,54528,54528,54528,54272,53760,52992,52480,52480,52480,52480,52480,52480,52480,52480,52480,52480,52480,52480,52480,52480,52480,52480,52224,51968,51968,51968,51712,51712,51712,51712,51968,52224,52224,52224,51968,51968,51968,51968,51968,51968,51968,51968,51968,51456,42752,46848,48896,48640,50944,51968,51712,51968,51456,51968,51712,51712,51712,51712,51712,51712,51712,51712,51712,51712,51712,51712,51712,51712,51712,51712,51712,51712,51712,51712,51712,51712,51712,51712,51712,51712,51712,51712,51712,51712,51712,51712,51712,51712,51712,51712,51712,51712,51712,51968,51968,51968,51456,51456,52224,52992,44288,52224,51712,50688,51968,48384,51712,51968,52480,52480,52480,52224,52224,52224,52224,52224,52224,52224,52480,52480,52480,52480,52480,52480,52480,52480,52224,52480,52480,52480,52480,52480,52480,52736,52992,52992,52992,52992,52992,52992,52992,52992,52992,52736,52736,53248,52736,49664,50432,49664,46848,48896,54016,53248,53504,53504,53504,54016,53504,53504,53504,53504,53504,53504,53504,53504,53504,53504,53504,54016,54016,54016,54016,54016,54272,54528,54528,54528
10752,10752,10752,10752,10752,10752,10752,10752,10752,10752,10752,10752,10752,10752,10752,10752,10752,10752,10752,10752,10752,10752,10752,10752,10752,10752,10752,10752,10752,10752,10752,11008,11008,10752,9216,7168,8704,8704,17152,29952,30720,30720,30720,30208,30464,29440,29952,31488,33792,34816,34560,34304,34560,34560,33792,33280,33792,33024,21504,17408,27392,28928,30464,32512,34304,35840,38912,42752,43776,42496,42752,40960,39424,38656,37888,37632,37376,27648,24576,23296,24320,25088,28928,33792,37120,41728,47616,57088,56576,44288,38400,41472,30464,25088,24576,22272,22272,21760,20224,18688,20736,21504,22272,22528,22784,34816,29184,28672,30464,31232,32256,33536,34048,33536,32512,33024,32512,32512,32768,31488,24064,21760,20736,20736,21248,21248,21248,21248,20736,20736,20736,20480,20224,20224,20224,20224,20224,20224,19968,19968,19968,19456,19456,18944,18944,18688,16128,14592,13824,13056,13824,18688,19456,18432,19712,20992,22272,24064,25600,27648,28672,28672,28928,28928,29696,29952,30976,31744,32768,35072,35584,36096,36608,36096,36608,36864,36864,37376,37632,37888,37888,37376,36608,36096,35584,34816,34304,34048,33792,33792,33792,33792,33792,33280,33792,34560,35584,36096,37120,38144,38912,39424,39936,41216,41984,41984,43008,43520,43520,43776,43520,43520,43520,43264,42752,42496,41728,41728,41472,41216,41216,41216,41216,41472,41728,41728,41984,41984,41984,42496,42496,42752,43008,43008,43264,44288,44288,44544,45056,46080,46592,47104,47872,48384,48896,49152,49664,49920,50432,50688,51456,51456,51456,51968,52224,52224,52736,52480,52480,52736,52480,52992,53504,53760,54272,54272,54528,54784,54784,54784,54784,54784,54528,54784,54016,53504,52736,52480,51968,51712,51712,51968,52224,52480,52736,52736,52736,52736,52480,52480,52480,52480,52480,52224,52224,52480,52736,52480,52992,52992,53248,54016,54528,55040,55296,55296,55296,55296,55040,54784,54272,54016,53504,52992,52480,52224,51456,51456,51200,51200,51200,51200,51456,52224,52736,53248,54016,54528,54784,54784,54528,54528,54528,54528,54016,53504,52992,52480,52736,52480,52480,52224,52224,52224,52224,52480,52480,52480,52480,52480,52480,52480,52480,52224,51968,51968,51968,51712,51712,51712,52224,51968,52224,52224,52224,51968,51968,51968,51968,51968,51968,51968,51968,51968,51456,43008,46592,48640,48640,50688,51968,51712,51968,51456,51968,51712,51712,51712,51712,51712,51712,51712,51712,51712,51712,51712,51712,51712,51712,51712,51712,51712,51712,51712,51712,51712,51712,51712,51712,51712,51712,51712,51712,51712,51712,51712,51712,51712,51712,51712,51712,51712,51712,51712,51968,51968,51968,51456,51456,52224,52992,44288,52224,51456,50688,52224,48640,51968,51968,52224,52480,52224,52224,52224,52224,52224,52224,52224,52224,52480,52480,52480,52480,52480,52480,52480,52480,52224,52480,52480,52480,52480,52480,52480,52736,52992,52992,52992,52992,52992,52992,52992,52992,52992,52736,52736,52992,52736,49664,50176,49920,47104,48640,54016,53248,53504,53504,53248,54016,53504,53504,53504,53504,53504,53504,53504,53504,53504,53504,53504,54016,54016,54016,54016,54016,54272,54528,54528,54528
10752,10752,10752,10752,10752,10752,10752,10752,10752,10752,10752,10752,10752,10752,10752,10752,10752,10752,10752,10752,10752,10752,10752,10752,10752,10752,10752,10752,11008,11008,11008,11008,11008,10752,9216,7168,8704,8704,16896,29696,30720,30720,30976,30208,30464,29440,29952,31488,33792,34560,34304,34048,34304,34304,33536,33024,33536,30208,14848,25088,27136,28928,30464,32512,34304,35840,38912,42752,43776,42496,42752,41216,39424,38656,37632,37376,37376,27392,24832,24064,24320,25088,25088,29696,35840,38400,40960,48640,56832,53248,43776,31232,24064,26112,24320,24832,21760,21504,19968,18432,20480,21504,22272,22528,22784,34560,28928,28160,29440,30464,31744,33024,34560,33280,32512,32256,32512,32256,32512,31232,23808,21760,20736,20736,20736,21248,21248,21248,20736,20992,20992,20736,20480,20480,20480,20480,20480,20480,19968,19968,19968,19456,19456,19200,19200,19200,16384,15104,14336,13824,14336,19200,19712,19200,20224,21504,22784,24320,25856,27904,28672,28416,28672,28416,29696,29952,30720,31744,32768,34816,35584,36352,36864,36608,36608,36864,36864,37376,37376,37376,37376,37120,36608,35584,35584,34048,33536,33280,33536,33536,33536,33536,33536,33280,33792,34560,35584,36096,37120,38144,38912,39424,40704,41728,42496,42752,43520,43776,44544,44288,43776,43776,43520,43520,43008,42496,41728,41728,41216,40960,40960,40960,40960,41216,41472,41728,41728,41984,41984,42496,42496,42752,42752,43008,43264,43776,43776,44288,44800,46080,46592,47104,47872,48384,48896,49152,49664,49920,50432,50944,51712,51456,51712,52224,52224,52480,52480,52480,52736,52736,52736,52736,52992,54016,54272,54528,54528,54784,55296,55296,55296,54784,54784,54272,53504,52736,52480,51968,51712,51456,51456,51968,52224,52480,52736,52736,52480,52736,52224,52480,52224,52224,52224,52224,52224,52480,52736,52480,52992,52992,52992,54016,54528,55040,55296,55296,55296,55808,55808,55296,54784,54272,54016,54016,53248,52992,52480,52480,51712,52224,51456,51200,51456,52224,52992,53504,53760,54528,55040,54784,54528,54528,54528,54528,54016,53504,52992,52224,52224,52224,52224,51968,52224,52224,52224,52480,52480,52480,52480,52480,52480,52480,52224,51968,51968,51968,51968,51712,51712,51712,51712,51968,52224,52224,52224,51968,51968,51968,51968,51968,51712,51712,52224,51968,51456,43264,46592,48640,48640,50432,51968,51456,51968,51456,51968,51712,51712,51712,51712,51712,51712,51712,51712,51712,51712,51712,51712,51712,51712,51712,51712,51712,51712,51712,51712,51712,51712,51712,51712,51712,51712,51712,51712,51712,51712,51712,51712,51712,51712,51712,51712,51968,51968,51968,51968,51968,51968,51712,51456,52224,52992,44288,52224,51456,50688,52224,48640,51968,52224,52224,52224,52224,52224,52224,52224,52224,52224,52224,52224,52480,52480,52480,52480,52480,52480,52480,52480,52224,52480,52480,52480,52736,52736,52736,52992,52992,52992,52992,52992,52992,52992,52992,52992,52992,52736,52736,52992,52736,50176,49664,50176,47104,48128,54272,52992,53504,53504,53248,54016,53504,53504,53504,53504,53504,53504,53504,53504,53504,53504,53504,54016,54016,54016,54016,54016,54528,54528,54528,54528
10240,10752,10752,10752,10752,10752,10752,10752,11008,10752,10752,10752,10496,10496,10752,10752,10752,10752,10752,10752,10752,10752,10752,10752,11008,11008,11008,11008,11008,11008,11008,11008,11008,10752,9216,7168,8704,8960,15360,29952,30464,30720,30976,30208,30464,29696,30464,31744,33792,34048,33536,33536,34048,33280,33280,32768,32768,22528,15872,31232,28416,29184,30720,32256,34048,36096,39168,43008,44032,43776,43008,41216,39680,38656,37632,37632,37120,27136,23296,23040,23808,24832,24576,26880,33536,38656,40448,42496,49664,56320,50432,38912,29696,25600,23808,23040,23296,21504,19968,18688,19456,21504,22272,22528,22784,32768,28672,27904,28928,29440,30720,32768,33024,32768,32256,32256,32256,32000,31232,30976,24064,21760,20736,20480,20480,20736,20736,20736,20992,20736,20992,20736,20224,20736,20224,20736,20992,20224,20736,20224,19968,19712,19200,18944,18944,18688,17920,16384,16384,16896,18432,22272,22528,23040,23040,23808,24064,25088,26112,27136,27648,27648,28416,29184,29696,30208,30720,31744,33792,35072,35840,36352,36864,36864,36864,37120,37120,36864,37120,37120,37120,36864,36096,35328,34048,33536,32768,32768,33024,33024,32768,32768,32768,33280,33536,34048,35072,36096,37120,37888,38912,39680,41472,41984,42496,43520,43776,44288,44544,44288,43776,43776,43776,43520,43008,42496,41728,41728,41472,41216,41216,41216,41216,41472,41728,41984,41984,42496,42496,42752,42752,42752,43008,43008,43264,44288,44288,44544,45056,46080,46592,46848,47872,48384,48896,49664,49920,50176,50688,50944,51712,51712,51712,52224,52224,52480,52736,52480,52736,53504,54016,54272,54272,54272,54528,54528,54784,55296,55296,55296,54784,54784,54528,54016,53504,52736,52224,51712,51456,51712,51712,51712,52480,52480,52480,52480,52224,51968,51968,52224,52480,52480,52480,52224,52224,52224,52224,52480,52736,52736,52992,54272,54784,55296,55296,55808,55808,55808,56064,56064,55808,55040,54016,54272,54016,53248,52992,52480,52480,52480,51968,51456,51712,52736,53248,53504,53760,54528,54784,54528,54528,54784,54272,54272,54016,52992,51968,52224,51456,50944,50688,51712,51968,52224,52224,52224,52224,52224,52224,52224,52224,52224,51968,51968,51968,51968,51968,51968,51968,51968,52224,52480,52224,52224,52480,52224,52224,52224,52224,52224,51968,51968,51968,52224,51456,43264,46592,48640,48640,50432,51968,51712,51968,51968,51968,51968,51968,51968,51968,51968,51968,51968,51968,51968,51968,51968,51968,51968,51968,51968,51968,51968,51968,51968,51968,51712,51712,51712,51712,51712,51712,51712,51968,51968,51968,51968,51968,51968,51968,51968,51968,51968,51968,51968,51968,51968,51968,51712,51712,52224,52992,44288,52224,52736,49152,52480,48896,51968,51968,52224,52480,52224,52480,52480,52480,52480,52480,52480,52480,52224,52224,52224,52480,52480,52480,52224,52224,51968,51968,52224,52224,52480,52736,52992,52992,52736,52736,52736,52736,52736,52736,52736,52992,52992,52992,52992,52992,54016,51200,49664,50432,47616,47872,54272,53248,53248,53248,52992,54016,53504,53504,53504,53504,53504,53504,53504,53504,53504,53504,53504,54016,54016,54016,54272,54016,54016,54016,54016,54016
10240,10752,10752,10752,10752,10752,10752,10752,11008,10752,10752,10752,10496,10496,10752,10752,10752,10752,10752,10752,10752,10752,10752,10752,11008,11008,11008,11008,11008,11008,11008,11008,11008,10752,9216,7168,8192,8960,15360,29952,30464,30720,30976,30208,30464,29696,30464,31744,33792,33792,33280,33024,33792,34048,33280,32000,31488,15104,22784,33792,27392,29184,30720,32256,34048,36096,39168,43008,44032,43776,43008,41216,39680,38656,37376,37376,37120,27136,24064,23296,23808,25344,25600,31744,41472,42240,38912,37888,41728,51968,55552,48896,35328,27136,24576,23552,23296,21760,19968,18944,19712,21504,22272,22528,22784,32768,28672,27392,28160,29184,30208,32256,32512,32512,32256,32000,32256,32000,31232,30720,24064,21504,20224,20224,20480,20480,20480,20480,20736,20992,20992,20736,20480,20480,20480,20224,20480,20480,20224,20480,20224,19968,19968,19712,20224,20992,21504,21760,22272,22272,23040,24320,23808,23552,23552,24064,24576,25344,26112,26880,27392,27904,28672,29184,30208,30464,30464,31744,33536,34560,35072,36352,36864,37120,37120,37376,37120,36864,36864,36864,36864,36608,35840,35072,33792,33024,32512,32256,32512,32512,32256,32256,32768,32768,33536,34048,35072,36096,37120,38144,38912,39680,41472,41984,42496,43520,43776,44288,44544,44288,43776,43776,43776,43264,42752,41984,41472,41472,41472,41216,41216,41216,41216,41472,41728,41984,42496,42496,42752,42752,42752,42752,43008,43008,43264,44288,44288,44544,45056,46080,46592,46848,47872,48384,48896,49664,49920,50176,50688,50944,51712,51712,51712,52224,52224,52480,52736,52736,52992,53760,54016,54272,54528,54272,54528,54528,54784,55296,55296,55296,54784,54528,54272,54016,53504,52736,52480,52224,51712,51712,51968,52224,52480,52480,52480,52224,52224,52224,52224,52224,52480,52480,52480,52224,51968,51968,51968,52224,52480,52480,52736,53248,54528,55040,55040,55296,55296,55808,56064,56064,56064,55808,55296,55808,55040,54272,53504,53248,52992,52992,52480,52224,52736,53504,53760,54016,54528,54528,54784,54528,54784,54784,54528,54528,53760,52736,51968,51968,51712,50944,50944,51712,52224,52224,51968,51712,51968,51968,51968,51968,51968,51968,51968,51968,51968,51968,51968,51968,51968,51968,52224,52480,52224,52224,52224,52224,52224,52224,52224,52224,51968,51968,51968,52224,51456,43776,46336,48640,48640,50176,51968,51712,51968,51968,51968,51968,51968,51968,51968,51968,51968,51968,51968,51968,51968,51968,51968,51968,51968,51968,51968,51968,51968,51968,51968,51712,51712,51712,51712,51712,51712,51712,51968,51968,51968,51968,51968,51968,51968,51968,51968,51968,51968,51968,51968,51968,51968,51712,51712,51968,52736,44800,51968,52736,49152,52480,48896,51712,51968,52224,52480,52224,52480,52480,52480,52480,52480,52480,52480,52224,52224,52224,52480,52480,52480,52224,51968,51456,51712,51968,52480,52736,52992,53248,53248,52992,52736,52736,52736,52736,52736,52736,52736,52992,52992,52992,52736,54016,51200,49408,50432,47616,47872,54016,53248,53248,53504,52992,53504,53504,53504,53504,53504,53504,53504,53504,53504,53504,53504,53504,54016,54016,54016,54272,54016,53760,53760,53760,53760
10240,10752,10752,10752,10752,10752,10752,10752,11008,10752,10752,10752,10496,10496,10752,10752,10752,10752,10752,10752,10752,10752,10752,10752,11008,11008,11008,11008,11008,11008,11008,11008,11008,10752,9216,7424,8192,8960,15360,29952,30464,30720,30976,30208,30464,29696,30464,31744,33792,33792,33280,33024,33792,32768,32256,33280,27392,11776,29952,35328,25856,29184,30720,32256,34048,36096,39168,43008,44032,43776,43264,41728,39680,38656,37376,37632,37376,27648,23040,23296,23808,25600,32256,41728,46080,43264,40192,37376,39936,44800,53760,54016,44032,33280,27136,24320,23808,22016,20480,19456,19968,21504,22272,22528,22784,32256,28160,27136,27392,28672,29952,31744,32256,32256,32000,31744,32000,31744,31232,30976,24576,20992,19968,19968,20224,20224,20224,20224,20736,20992,20480,20480,20224,20224,20224,20224,20480,20224,20480,20736,20736,20992,20992,20992,21504,23040,23040,24064,24320,24064,24320,24064,24064,23808,24320,24576,24832,25856,26368,27136,27648,28416,29696,29696,30208,30464,30720,31488,32768,33792,34560,35072,35840,36096,36352,36864,36864,36608,36864,36864,36864,36608,35584,34816,33536,33024,32256,31744,32256,32256,31744,32256,32768,32768,33536,33792,35072,36096,37120,38144,39168,39936,41472,42496,42752,43520,43776,44288,44288,44288,44288,43776,43776,43264,42496,41728,41472,41472,41472,41472,41216,41216,41216,41728,41984,42752,43008,43008,43008,43008,43008,43008,43264,43264,43520,44288,44288,44544,45056,46080,46592,46848,47872,48384,48896,49664,49920,50176,50688,50944,51712,51712,51968,52480,52480,52736,52736,52992,53504,54016,54272,54528,54528,54528,54784,54784,54784,55296,55296,55296,54784,54528,54528,54016,53504,52992,52736,52736,52480,52480,52736,52992,52992,52992,52480,52224,52224,52224,52224,52224,52480,52480,52480,52224,51968,51456,51456,51456,51712,51712,52480,52992,54016,54528,54784,55040,55296,56064,56320,56576,56832,56576,56576,56320,55296,54528,54016,53504,53504,53504,53248,53504,53760,54016,54272,54784,55296,55296,55296,55296,55296,55296,54528,54528,54272,53504,52480,52480,51968,51712,51712,51968,52224,52224,52480,51712,51968,51968,51968,51968,51968,51968,51968,51968,51968,51968,51968,51968,51968,51968,52224,52480,52480,52224,52224,52224,52224,52224,52224,52224,52224,52224,51968,52224,51712,44288,46336,48640,48896,50176,52224,51712,51968,52224,51968,51968,51968,51968,51968,51968,51968,51968,51968,51968,51968,51968,51968,51968,51968,51968,51968,51968,51968,51968,51968,51712,51712,51712,51712,51712,51712,51712,51968,51968,51968,51968,51968,51968,51968,51968,51968,51968,51968,51968,51968,51968,51968,51968,51968,51968,52736,45568,50944,52736,49152,52480,48896,51456,51968,52480,52480,52480,52480,52480,52480,52480,52480,52480,52480,52224,52224,52224,52480,52480,52480,52224,51968,51456,51712,51968,52480,52736,52992,53248,53248,52992,52736,52736,52736,52736,52736,52736,52736,52992,52992,52992,52736,53760,51200,49408,50688,47616,47616,54016,53248,53248,53504,53504,53504,53504,53504,53504,53504,53504,53504,53504,53504,53504,53504,53504,54016,54016,54016,54272,54016,54016,54016,54016,54016
10240,10752,10752,10752,10752,10752,10752,10752,11008,10752,10752,10752,10496,10496,10752,10752,10752,11008,11008,11008,11008,11008,11008,11008,11008,11008,11008,11008,11008,11008,11008,11008,11008,10752,9216,7424,8192,8960,15360,29952,30464,30720,30976,30208,30464,29696,29952,31744,33792,33792,32768,32768,33792,33792,32512,33280,22272,14848,34816,34560,27392,29184,30720,32256,34048,36096,39168,43008,44032,43776,43264,41728,39680,38656,37632,37888,37632,27904,23296,23552,24064,31232,41472,44800,42240,45056,41984,36352,38144,40448,47360,54272,53760,43776,32512,25856,24320,22528,20736,19456,20224,21504,22272,22528,22784,32256,28160,27136,27136,28160,29696,31744,32000,31744,31488,31488,31232,31488,30976,30720,24320,20736,19712,19968,19968,19968,19968,20224,20480,20224,20480,20224,19968,19968,19968,20224,20736,20736,20992,21248,21760,22016,22016,22016,22016,22784,22272,23040,22784,22784,23040,22784,23296,23296,23808,24064,24320,25344,25600,26368,27136,28160,28416,28416,29184,28928,29440,30720,31744,33024,34048,34304,35328,35584,36096,36864,36864,36608,36864,36864,36864,36608,35584,34816,33536,32512,31488,31232,31488,31488,31232,31488,32256,32768,33280,33792,34816,36096,37120,38144,39424,39936,41728,42496,42752,43520,43776,43776,44544,43776,43776,43776,43776,43008,41984,41728,41728,41728,41472,41216,41216,41472,41472,41984,42496,42752,43008,43008,43008,43264,43264,43264,43264,43264,43520,44288,44288,44544,45056,46080,46592,46848,47872,48384,48896,49664,49920,50176,50688,50944,51712,51712,51968,52480,52736,52736,52992,53504,53760,54016,54272,54528,54528,54528,54784,54784,54784,55296,55296,54784,54784,54528,54272,54016,53760,53504,52992,52992,52992,52736,52992,52992,52992,52736,52224,51968,52224,52224,52224,52480,52480,52736,52480,52224,51968,51200,50688,51200,50944,50944,51200,52224,52992,53504,54528,55040,55296,56064,56576,56832,56832,56832,56832,56064,55296,55040,54528,54272,54528,54528,54528,54272,54272,54528,55296,55552,55552,55808,55808,55808,55552,55552,54784,54784,54528,53760,52992,52480,52224,51968,51968,51968,52224,52480,52480,52480,52224,52224,52224,52224,52224,52224,52224,51968,51968,51968,51968,51968,51968,51968,52224,52736,52736,52480,52480,52224,52224,52224,52224,52224,52224,52224,51968,52224,51712,44544,46080,48640,48896,50176,52224,51712,51968,52224,51968,51968,51968,51968,51968,51968,51968,51968,51968,51968,51968,51968,51968,51968,51968,51968,51968,51968,51968,51968,51968,51712,51712,51712,51712,51968,51968,51968,51968,51968,51968,51968,51968,51968,51968,51968,51968,51968,51968,51968,51968,51968,51968,51968,51968,51968,52736,46336,50432,52736,49664,52224,48896,51456,52224,52224,52480,52480,52480,52480,52480,52480,52480,52480,52480,52224,52224,52224,52480,52480,52480,52224,51968,51456,51712,51968,52480,52736,52992,53248,53248,52992,52736,52736,52736,52736,52736,52736,52736,52992,52992,52992,52736,53760,51200,49152,50688,47616,47616,54016,53248,53248,53504,53504,53504,53504,53504,53504,53504,53504,53504,53504,53504,53504,53504,53504,54016,54016,54016,54272,54016,54016,54016,54016,54016
10240,10752,10752,10752,10752,10752,10752,10752,11008,10752,10752,10752,10496,10496,10752,11008,11008,11008,11008,11008,11008,11008,11008,11008,11008,11008,11008,11008,11008,11008,11008,11008,11008,10752,9216,7680,8192,8960,15360,29952,30464,30976,31232,30464,30720,29440,30464,32000,34048,33280,33280,33024,33536,33280,32256,33280,17920,21760,35584,34816,29440,29440,30976,32512,34304,36096,39168,43008,44032,43776,43264,41728,39680,38912,37888,38144,37888,28416,23552,25088,30720,41472,45568,42752,44032,43008,33280,31232,36352,38656,43776,50688,56576,52224,40960,29696,25600,23040,20736,19712,19712,21760,22528,23040,23040,30720,27904,27136,27136,28672,29696,30976,31744,30976,30720,30464,30720,30208,29696,29696,24064,20224,19456,19456,19456,19456,19712,19712,19712,19968,20224,19968,19712,19968,20224,20736,21248,21760,22016,22272,22528,22528,22528,22272,22272,22272,22528,22016,21760,21760,22016,21760,22016,22528,22528,23040,23040,23552,24064,24832,25088,26624,26880,26880,27392,27648,28160,29184,30720,31744,32768,33536,34304,34816,35328,35584,36352,36352,36608,36608,36608,36096,35328,34304,33280,31744,31232,30976,31232,31232,30976,31232,31744,32512,33024,33536,34560,35584,36864,38144,39424,40192,41728,42496,42752,43264,43776,43776,43776,43776,43776,43776,43520,42752,42496,41984,41728,41728,41472,41472,41472,41728,41728,42496,43008,43264,43264,43264,43264,43264,43264,43264,43264,43264,43520,44288,44288,44544,45056,46080,46592,46848,47872,48384,48896,49664,49920,50176,50688,50944,51712,51712,51968,52480,52736,52736,52992,53504,53760,54016,54528,54528,54528,54528,54528,54528,54528,54784,54784,54528,54528,54272,54016,53760,53760,53504,53504,53504,53760,53504,53248,53248,53248,52736,52480,52224,52224,52224,52480,52224,52736,52736,52736,52480,51456,50944,50176,50176,50432,49920,50688,51200,52480,53504,54272,54784,55296,55808,56320,56832,57088,56832,56576,56576,56320,56064,55808,55808,55296,55296,55296,54784,54784,55552,55808,55808,56064,56320,56576,56576,56320,56064,55296,55296,54784,54016,53504,52480,52224,51968,51968,52224,52480,52480,52480,52224,51968,51968,51968,51968,51968,51968,51968,52224,52224,52224,52224,51968,51968,51968,52224,52736,52736,52480,52480,52480,52224,52224,52224,52224,52224,52224,51968,52224,51968,44800,45568,48640,48896,50176,52224,51712,51968,52224,51968,51968,51968,51968,51968,51968,51968,51968,51968,51968,51968,51968,51968,51968,51968,51968,51968,51968,51968,51968,51968,51968,51968,51968,51968,51968,51968,51968,51968,51968,51968,51968,51968,51968,51968,51968,51968,51968,51968,51968,51968,51968,51968,51968,51968,51968,52736,47104,50432,52480,49664,52224,49152,50944,52224,52224,52480,52480,52480,52480,52480,52480,52480,52480,52480,52224,52224,52224,52224,52224,52224,52224,51968,51712,51712,51968,52480,52736,52992,53248,53248,52992,52736,52736,52736,52736,52736,52736,52736,52736,52736,52736,52736,53248,51200,49152,50432,47872,47360,54016,53504,53248,53504,53504,53504,53248,53504,53504,53504,53504,53504,53504,53504,53504,54016,54016,54016,54272,54272,54528,54272,54272,54272,54272,54272
10240,10752,10752,10752,10752,10752,10752,10752,11008,10752,10752,10752,10496,10496,10752,11008,11008,11008,11008,11008,11008,11008,11008,11008,11008,11008,11008,11008,11008,11008,11008,11008,11008,10752,9216,7680,7936,8960,15104,29440,30464,30976,31232,30464,30720,29952,30464,32000,33792,33280,33280,33024,33536,32768,33280,31488,13824,23296,36352,35328,28672,29440,30976,32512,34304,35840,39168,43264,44544,44032,43264,41728,39680,39168,38144,38400,38144,29184,23808,30464,40960,44800,41472,43264,41472,33792,25856,26624,31488,36608,40448,45568,51712,56064,50432,38912,28416,22784,20736,19712,20224,21760,22528,23040,23040,30720,27904,27136,26880,27904,28928,30208,31232,30464,30464,29696,29184,28928,28672,28928,23552,19968,18944,18944,19456,18944,19456,19712,19712,19968,20224,19968,19968,20480,20736,21248,21760,22272,22528,22784,22784,22528,22528,22016,22016,21504,21504,21248,20736,20736,20992,20736,21248,20736,20992,20992,21248,21760,22016,22784,23040,24576,24832,24832,25600,26112,26624,27904,29440,30976,32000,33280,33536,34304,34816,35328,35840,35840,36096,36096,36096,35840,35072,34048,33024,31744,31232,30976,31232,31232,30976,31232,31744,32512,33024,33280,34304,35584,36608,38144,39424,40192,41728,42496,42752,43264,43776,43776,43776,43776,43776,43520,43008,42496,42496,41984,41984,41728,41728,41728,41728,41984,42752,43264,43264,43520,43264,43264,43264,43008,43008,43008,43008,43264,43520,44288,44288,44544,45056,46080,46592,46848,47872,48384,48896,49664,49920,50176,50688,50944,51712,51712,51968,52480,52736,52736,52992,53504,53760,54016,54272,54272,54272,54272,54528,54528,54528,54784,54784,54528,54272,54272,54016,54016,54016,53760,53760,53760,53760,53504,52992,53248,52992,52480,52224,51968,51968,52224,52480,52480,52480,52736,52736,52224,51200,50688,49920,49920,49664,49408,49664,50688,51712,52992,54272,53504,54528,55040,55808,56320,56576,56320,56320,56320,56320,56320,56064,56064,55808,55808,54784,55296,55552,55808,55808,56064,56320,56576,57344,57088,56576,56064,55296,54784,54528,53760,52992,51968,51968,51712,51968,52480,52736,52736,52480,52480,51968,51968,51968,51968,51968,51968,51968,52224,52224,52224,52224,51968,51968,51968,52224,52736,52736,52480,52480,52480,52224,52224,52480,52480,51968,52224,51968,52224,52224,45056,45568,48640,48896,50176,52224,51712,51968,52224,51968,51968,51968,51968,51968,51968,51968,51968,51968,51968,51968,51968,51968,51968,51968,51968,51968,51968,51968,51968,51968,51968,51968,51968,51968,51968,51968,51968,51968,51968,51968,51968,51968,51968,51968,51968,51968,51968,51968,51968,51968,51968,51968,51968,51968,51968,52736,47104,50176,52480,49664,52224,49664,50944,52480,52224,52480,52480,52480,52480,52480,52480,52480,52480,52480,52224,52224,52224,52224,52224,52224,52224,51968,51712,51712,51968,52480,52736,52992,53248,53248,52992,52736,52736,52736,52736,52736,52736,52736,52736,52736,52736,52992,52992,51200,48896,50432,48128,47360,53504,53504,53248,54016,53504,53504,53248,53504,53504,53504,53504,53504,53504,53504,53504,54016,54016,54016,54272,54272,54528,54272,54272,54272,54272,54272
10240,10752,10752,10752,10752,10752,10752,10752,11008,10752,10752,10752,10496,10496,10752,11008,11008,11008,11008,11008,11008,11008,11008,11008,11008,11008,11008,11008,11008,11008,11008,11008,11008,10752,9216,7936,7936,8960,14336,28672,30464,30976,31232,30464,30720,30976,30976,32512,33792,34048,33536,33792,34048,33280,33792,29184,10240,25088,37120,36352,28672,29696,30976,32512,34560,35840,39424,44288,45568,44544,44032,41984,39936,39680,38656,38912,38656,30720,30464,38400,44288,41472,42240,41472,31488,26368,24832,27136,29184,34560,39424,41472,44544,52224,56576,48896,35072,25088,21760,20480,20480,21760,22528,23040,23040,30208,27648,26624,26368,27136,28160,29440,30208,29696,29184,28672,28416,27392,27392,27648,22528,19712,18688,18944,18944,18688,18944,19456,19456,19968,20224,20480,20736,21248,21760,21760,21760,21760,22016,22016,22272,22016,21248,20736,20736,20480,20480,18944,18176,18688,18176,18688,19200,19200,19456,19456,19456,19968,20224,20480,21248,22272,22784,23296,24320,24832,26112,26880,28416,29440,31232,32512,33024,33792,34304,34560,35072,35840,35840,36096,36096,35840,35072,34048,33024,31488,30976,30720,30976,30976,30720,30976,31488,32000,32256,32768,33792,34816,36352,37888,39168,40704,41728,42496,43008,43264,43776,43776,43776,43776,43776,43520,42752,42496,42496,41984,42496,41984,42496,42496,42752,43008,43264,43520,43520,43520,43264,43264,43008,43008,43008,43008,43008,43264,43520,44288,44288,44544,45056,46080,46592,46848,47872,48384,48896,49664,49920,50176,50688,50944,51712,51712,51968,52480,52736,52736,52992,53504,53760,54016,54272,54272,54272,54272,54272,54272,54528,54528,54528,54528,54272,54272,54016,54016,54016,54016,53760,53760,53504,53504,52992,52992,52736,52480,52224,51968,51968,52224,52480,52480,52480,52736,52480,51968,50944,50176,49408,49408,48896,48128,48896,49408,50688,51456,52224,52224,52736,54016,54528,55296,56064,56064,56320,56064,56064,56064,56064,55808,55808,55808,55808,55552,55552,55808,56064,56064,56320,57088,57600,57088,56576,55808,54784,54272,54016,52992,52224,51456,51456,51456,51968,52480,52736,52736,52736,52480,52224,52224,52224,52224,52224,52224,52224,52224,52224,52224,52224,52224,51968,51968,52224,52736,52736,52736,52736,52736,52480,52480,52480,52480,51968,52480,52224,52224,52480,45312,45312,48640,48896,50176,52224,51712,51968,52224,52224,51968,51968,51968,51968,51968,51968,51968,51968,51968,51968,51968,51968,51968,51968,51968,51968,51968,51968,51968,51968,51968,51968,51968,51968,51968,51968,51968,51968,51968,51968,51968,51968,51968,51968,51968,51968,51968,51968,51968,51968,51968,51968,51968,51968,51968,52736,47104,50176,52736,49664,51968,49664,50944,52480,52480,52480,52480,52480,52480,52480,52480,52480,52480,52480,52224,52224,52224,52224,52224,52224,52224,51968,51712,51712,51968,52480,52736,52992,53248,53248,52992,52736,52736,52736,52736,52736,52736,52736,52736,52736,52736,52992,52992,51456,48896,50432,48128,47104,53504,53504,53248,54016,53504,52992,53504,53504,53504,53504,53504,54016,54016,54272,54272,54272,54272,54528,54528,54528,54528,54272,54272,54272,54272,54272
9984,10496,10752,10752,10752,10752,10752,10752,11008,10752,10752,10752,10496,10496,10752,11008,11008,11008,11008,11008,11008,11008,11008,11008,11008,11008,11008,11008,11008,11008,11008,11008,11008,10752,8960,7680,7680,8704,13312,28416,30720,31232,31488,30464,30720,31488,31232,32256,33536,34304,33792,34048,34304,33792,33792,28160,10496,24832,36608,37376,29696,29952,31232,32512,34560,35840,39168,44288,46080,44800,44288,41984,40192,39680,38912,39168,38656,34816,39424,42752,40192,40960,41472,32000,25088,25600,26112,26368,26624,29952,34560,39168,40704,45824,56320,55808,45824,32768,24832,20736,20224,21760,22528,22784,23040,30208,27392,26368,26112,26880,27136,28416,29184,28160,28416,27648,27648,26880,26880,27392,21760,19456,18944,18944,19200,19200,18944,18944,19200,20480,20736,21248,21248,21248,21504,21504,21504,21760,21248,22016,21760,21248,20992,20736,20480,20224,20736,18944,18944,18944,18176,18176,18432,18688,18688,18688,18944,19200,19712,19968,20224,20736,21760,22784,23552,24064,24576,26112,27648,28928,30464,31744,33024,33280,33792,34048,34816,35584,35840,36096,36096,35840,34816,34048,32512,31232,30208,29952,30208,30208,29952,30208,30976,31488,32000,32256,33536,34816,36096,37632,38912,40448,41728,42496,43008,43264,43776,43776,43776,43776,43776,43008,42752,42496,42752,42496,42752,42752,42752,43008,43008,43264,43520,43776,43776,43520,43264,43264,43008,42752,43008,43008,43008,43264,43520,44288,44288,44544,45056,46080,46592,46848,47616,48128,48896,49408,49664,49920,50944,50944,51456,51456,51712,52480,52736,52736,52992,53248,53760,54016,54272,54272,54272,54272,54272,54272,54272,54528,54528,54528,54272,54272,54016,54016,54016,54016,53760,53760,53504,52992,52992,52736,52736,51968,51968,51712,51712,52224,52480,52480,52480,52736,52480,51456,50688,50176,49408,48640,48128,47616,47616,48128,48896,49664,49920,50688,51200,52224,53504,54784,55296,55808,56064,56320,56320,56320,56064,56320,56576,56576,56320,55808,55552,55808,56064,56320,57088,57600,57600,56832,56576,55552,54528,53504,53248,52480,51456,50944,50944,50944,51712,52480,52736,52736,52992,52736,52480,52480,52480,52480,52480,52480,52480,52480,52480,52480,52224,52224,51968,51968,52224,52736,52736,52736,52736,52736,52480,52480,52480,52480,51968,52480,52224,51968,52480,45568,45312,48640,48896,50176,52224,51968,52224,52224,52224,51968,51968,51968,51968,51968,51968,51968,51968,51968,51968,51968,51968,51968,51968,51968,51968,51968,51968,51968,51968,51968,51968,51968,51968,51968,51968,51968,51968,51968,51968,51968,51968,51968,51968,51968,51968,51968,51968,51968,51968,51968,51968,51968,51968,51968,52736,47104,49920,52736,49664,51968,49920,50688,52480,52224,52480,52480,52480,52480,52480,52480,52480,52480,52480,52224,52224,52224,52224,52224,52224,52224,52224,51968,51968,52224,52224,52480,52736,52992,52992,52736,52736,52736,52736,52736,52736,52736,52736,52736,52736,52736,52992,52992,51456,48640,50432,47872,46848,53248,53248,52992,53504,53248,52992,53248,53248,53248,53248,53504,53504,53504,54016,54016,54016,54016,54272,54272,54272,54272,54016,54272,54016,54016,54016
9984,10496,10496,10496,10496,10496,10496,10496,10496,10496,10496,10496,10496,10496,10496,10496,10496,10752,10752,10752,10752,10752,10752,10752,10752,10752,10752,10752,10752,10752,10752,10752,10752,10496,8704,7168,7168,8448,10496,22272,28160,31488,31744,30720,30976,31232,31232,32256,33792,34048,34048,34304,34816,34304,34304,27392,9728,21504,37120,36608,28672,30208,31488,32256,34304,35584,39168,43776,45824,45312,44288,42240,40448,39680,38656,38912,38400,41984,41728,38656,39424,41472,31232,24320,24320,24576,24576,25088,25344,26624,29440,34048,37632,38912,47872,58112,55040,41728,30976,22528,21504,22272,22528,23296,22016,28416,27136,25856,26112,26368,26624,26880,26880,26880,26880,26112,26112,26112,25600,25856,22272,19456,19200,19200,19456,19712,20224,20736,20992,20736,20992,20992,20992,20992,20992,20992,20992,21504,21760,21760,21760,21248,20992,20736,20480,19200,18944,18944,18176,17920,18176,18176,18176,18432,18176,18176,18432,18432,18688,18944,19200,19200,19968,20992,21760,22016,23296,24832,27136,28160,29440,30720,31488,32512,32768,33792,34560,35072,35584,35840,35584,35072,34304,33280,32256,30976,30208,29952,29440,29184,29184,29440,30464,30976,31488,32000,33024,34560,35840,37376,38912,40704,41728,42496,43008,43520,43776,43776,44288,44288,44288,43264,43008,43008,43008,43008,43264,43264,43264,43520,43264,43520,43520,43776,43776,43776,43264,43008,42752,42752,42752,43008,43264,43264,43520,44288,44288,44544,44800,46080,46336,46592,47616,48128,48896,49408,49664,49920,50688,50944,51456,51456,51712,52224,52224,52224,52224,53504,53760,53760,54272,54272,54272,54272,54272,54272,54272,54528,54528,54272,54272,54272,54272,54272,54272,54016,53760,53760,53504,52992,52736,52736,51968,51712,51712,51712,51712,51968,52224,52736,52736,52736,52224,51456,50432,49664,48896,47872,47104,46336,47104,47360,47616,48640,49408,49920,50688,51712,52736,54016,54528,54784,55040,55040,55296,55040,55808,55808,56320,56576,56320,55808,55552,55808,56320,57088,57856,57856,57856,56576,56064,54784,54016,54016,52736,51200,49920,49920,49408,50688,51712,52224,52480,52736,52736,52736,52992,52992,52992,52992,52992,52992,52992,52480,52480,52480,52224,52224,52224,52224,52224,52736,52736,52736,52736,52736,52736,52736,52480,52480,52224,52224,52224,51968,52224,46336,45056,48896,48896,50176,52480,52224,52480,52224,52224,52224,52224,52224,52224,52224,52224,52224,52224,52224,52224,52224,52224,52224,52224,52224,52224,52224,52224,52224,52224,52224,52224,52224,52224,51968,51968,51968,51968,51968,51968,51968,51968,51968,51968,51968,51968,51968,51968,51968,51968,51968,51968,51968,51968,51968,52736,48640,49920,52736,49664,50944,50176,49152,52736,51968,52224,52224,52224,52224,52224,52224,52224,52224,52224,52224,52224,52224,52224,52224,52224,52224,52224,52224,52224,52224,52224,52224,52480,52480,52480,52736,52736,52736,52736,52736,52736,52736,52736,52480,52480,52480,52480,52736,51200,48128,50176,47616,44544,52736,52736,52736,52736,52736,52480,52736,52736,52736,52992,52992,52992,52992,52992,53760,53760,53760,53760,53760,54016,54016,54016,54272,54016,54016,54016
9984,10240,10240,10240,10240,10240,10240,10240,10240,10240,10240,10240,10240,10240,10240,10240,10240,10496,10496,10496,10496,10496,10496,10496,10496,10496,10496,10496,10496,10496,10496,10496,10496,10240,8448,7168,7168,7680,10496,20224,22272,28672,30720,30208,30976,31232,30976,32256,33536,34048,34048,34560,35328,35584,35328,27904,11008,16896,35584,36352,29952,30208,31488,32256,34304,35584,39168,43520,45824,45312,44288,42240,40704,39936,38912,39168,38400,38912,37120,38400,42240,31488,24832,22272,23296,24576,24576,24576,25088,25856,26368,29696,35328,36864,42240,51712,59392,52736,39424,27136,21760,22528,21760,20480,23040,28160,26880,25600,25856,25856,25856,26368,26112,26112,26112,25088,25344,26112,26112,25344,21760,19200,19200,19712,19712,20224,20480,20736,20992,20736,20736,20736,20736,20736,20736,20736,20992,21504,21760,21760,21248,20992,20736,20480,20224,19712,18944,18688,18432,18176,18432,18432,18176,18176,18176,18176,18176,18432,18432,18944,18688,18432,18944,19712,20224,20480,22016,23552,25856,27392,28672,30208,31232,32000,32512,33536,34304,34816,35328,35584,35328,35072,34048,33280,32000,30720,29952,29696,29184,28928,28928,29184,29696,30720,30976,31744,32768,34304,35840,37632,38656,40704,41728,42496,43264,43520,43776,44288,44288,44288,44288,43520,43264,43008,43264,43264,43520,43520,43520,43776,43520,43520,43520,43776,43776,43776,43264,42752,42752,42752,42752,43008,43264,43264,43520,44288,44288,44544,44800,46080,46336,46336,47616,48128,48640,49408,49664,49920,50432,50688,51456,51456,51712,51968,51968,51968,52224,53504,53760,53760,54016,54272,54272,54272,54272,54272,54272,54272,54272,54272,54272,54272,54272,54272,54272,54016,53760,53760,53504,52992,52736,52480,51968,51712,51712,51712,51712,51968,52480,52736,52736,52736,52224,51456,50432,49664,48896,47872,47104,46080,46848,46848,47104,47872,48640,49408,49920,50944,51712,52736,53248,54016,54016,54272,54784,54784,55296,55808,56320,56576,56320,55808,55552,56064,56576,57600,58112,57856,57856,56576,55808,54272,53504,52992,51712,50432,48896,49408,49408,50432,51712,51968,52224,52480,52992,52992,52992,52992,52992,52992,52992,52992,52992,52480,52480,52480,52224,52224,52224,52224,52480,52736,52736,52736,52736,52736,52736,52736,52736,52480,52224,52224,52480,51968,52224,46592,45056,48896,48896,50176,52480,52480,52480,52480,52224,52224,52224,52224,52224,52224,52224,52224,52224,52224,52224,52224,52224,52224,52224,52224,52224,52224,52224,52224,52224,52224,52224,52224,52224,51968,51968,51968,51968,51968,51968,51968,51968,51968,51968,51968,51968,51968,51968,51968,51968,51968,51968,51968,51968,51968,52992,48640,49920,52736,49664,51712,50432,49152,52736,51712,52224,52224,52224,52224,52224,52224,52224,52224,52224,52224,52224,52224,52224,52224,52224,52224,52224,52224,52224,52224,52224,52224,52224,52224,52480,52736,52736,52736,52736,52736,52736,52736,52736,52480,52224,52224,52224,52480,51456,48128,50176,47360,44288,52480,52480,52480,52480,52480,52480,52480,52480,52736,52736,52736,52992,52992,52992,53504,53504,53504,53504,53760,53760,53760,53760,54016,54016,54016,54016
9984,10240,10240,10240,10240,10240,10240,10240,10240,10240,10240,10240,10240,10240,10240,10240,10240,10240,10240,10240,10240,10240,10240,10240,10240,10496,10496,10496,10496,10496,10496,10496,10496,9728,8192,7168,7680,7936,11264,22528,22016,23808,27392,29696,30720,30720,30720,32256,33536,34048,34048,34560,35584,35328,35072,26368,11264,10752,30976,36608,29952,29952,32000,32768,33792,35584,38912,43520,45824,45312,44288,42240,40960,39936,38912,39168,38400,36864,38912,42496,33536,24832,22272,22272,24320,24320,24320,24576,25088,26624,25856,26880,31488,34304,36096,40960,53248,58112,49920,36096,25088,23552,22784,21504,22272,27904,26624,25344,25600,25600,25600,25600,25600,25344,25088,25088,24832,24832,25088,24320,21248,19456,18944,19200,19712,20224,20480,20736,20992,20736,20480,20480,20480,20480,20480,20480,20736,20992,20992,20992,20992,20736,20480,20224,19968,19968,19712,18944,18688,18432,18432,18176,18176,18176,17920,17920,17920,18176,18176,18432,18176,17920,18432,18432,19200,18688,20480,22272,24576,26368,28160,29952,31232,32000,32512,33280,34048,34816,35072,35328,35328,35072,33792,33024,32000,30208,29440,28928,28672,28160,28160,28928,29440,29952,30976,31744,32768,34304,36096,37632,38912,40960,41728,42752,43264,43520,43520,44288,44288,44288,44288,43520,43520,43264,43520,43520,43520,43520,43520,43520,43520,43520,43520,43264,43264,43008,43008,42496,42496,42496,42752,43008,43264,43264,43520,44288,44288,44544,44800,46080,46336,46848,47616,48128,48640,49408,49664,50176,50688,50688,51456,51456,51712,51968,51968,51968,52224,53504,53760,53760,53760,54016,54272,54272,54272,54272,54272,54272,54272,54272,54272,54272,54272,54272,54272,54016,53760,52992,52992,52736,52736,52736,52224,51712,51456,51712,51712,51968,52480,52224,52736,52736,52224,51200,50432,49664,48640,47104,46336,45568,45568,45824,45824,46336,47104,47872,48896,49152,49408,49920,50432,51200,51456,52224,52992,54016,54784,55296,56064,56320,56320,55808,55808,56064,57344,57856,57856,57856,57856,56576,55552,53760,52992,52224,50432,49664,48640,48640,48896,50432,52224,52224,52224,52480,52480,52992,52992,52992,52992,52992,52992,52992,52992,52480,52480,52480,52224,52224,52224,52224,52480,52736,52736,52736,52736,52736,52736,52736,52736,52480,52224,52224,52480,51968,52224,46848,44800,48896,48896,50176,52480,52480,52480,52480,52224,52224,52224,52224,52224,52224,52224,52224,52224,52224,52224,52224,52224,52224,52224,52224,52224,52224,52224,52224,52224,52224,52224,52224,52224,51968,51968,51968,51968,51968,51968,51968,51968,51968,51968,51968,51968,51968,51968,51968,51968,51968,51968,51968,51968,51968,52992,48640,49664,52480,49664,52224,51456,49152,52736,51712,52224,52224,52224,52224,52224,52224,52224,52224,52224,52224,52224,52224,52224,52224,52224,52224,52224,52224,52224,52224,52224,52224,52224,52224,52480,52736,52736,52736,52736,52736,52736,52736,52736,52480,52224,52224,52224,52480,51456,48128,50176,47360,44288,52480,52480,52480,52480,52480,52480,52480,52480,52736,52736,52992,52992,52992,52992,53504,53504,53504,53504,53760,53760,53760,53760,54016,54016,54016,54016
9984,10240,10240,10240,10240,10240,10240,10240,10240,10240,10240,10240,10240,10240,10240,10240,10240,10240,10240,10240,10240,10240,10240,10240,10240,10496,10496,10496,10496,10496,10496,10496,10496,9216,8192,7168,7680,8704,12800,26624,27648,22784,23552,27648,30208,29952,30464,31744,33536,34304,34048,34560,35584,36096,35840,26624,12288,8960,28416,36608,28928,29696,32000,33024,33536,35584,38912,43520,45824,45312,44288,42496,40960,39680,38912,38912,38144,38400,39936,33280,22528,24320,22784,23808,23808,24064,24320,24576,24832,25600,26112,25856,27392,32512,35328,37120,43520,54784,57088,46592,31488,26624,22784,22784,22272,27648,25600,24576,25088,25088,25088,25088,25088,25088,25088,24832,24320,22784,21760,20992,19712,18944,18688,18944,19200,19968,19968,20224,20224,20480,20224,20224,20224,20224,20224,20224,20480,20736,20736,20736,20992,20736,20736,20480,20224,20224,19968,19712,19200,18688,18432,18176,18176,17920,17920,17920,17408,17408,17408,17408,17408,17408,17408,17408,17664,17920,18944,21504,23552,25600,27904,29440,30720,32000,32512,33280,34048,34816,35072,35328,35328,34816,33792,32768,31744,29952,29184,28672,27904,27648,27904,28672,29440,30208,30976,32256,33024,34816,36352,38144,39424,40960,41728,42752,43264,43520,43520,43776,44288,44288,44288,43776,43520,43520,43776,43776,43776,43520,43520,43520,43520,43520,43264,43264,43008,42752,42496,42496,42496,42496,42752,43008,43264,43264,43520,44288,44288,44544,44800,46080,46336,46848,47616,48128,48640,49664,49920,50176,50688,50688,51456,51456,51712,51968,51968,51968,52480,53248,53760,53760,53760,53760,54016,54016,54272,54272,54272,54272,54272,54272,54272,54272,54272,54272,54272,54016,53760,52992,52992,52736,52736,52992,52480,51968,51456,51456,51712,51968,52480,51968,52736,52480,51968,51200,50176,49664,48640,47104,46336,45568,45312,45312,45312,45568,46080,46336,47104,47360,47616,47872,48640,49152,49664,50944,52480,53248,54528,55296,56064,56320,56320,56064,56064,56576,57600,57856,57856,58112,58112,56576,55040,53504,52224,51456,49920,48640,48640,48640,48640,50432,52224,52480,52224,52224,52480,52480,52480,52992,52992,52992,52992,52992,52992,52480,52480,52480,52480,52224,52224,52224,52480,52736,52736,52736,52736,52736,52736,52736,52480,52480,52480,52480,52480,52224,52224,47360,44544,48896,48896,50176,52480,52480,52480,52480,52224,52224,52224,52224,52224,52224,52224,52224,52224,52224,52224,52224,52224,52224,52224,52224,52224,52224,52224,52224,52224,52224,52224,52224,52224,51968,51968,51968,51968,51968,51968,51968,51968,51968,51968,51968,51968,51968,51968,51968,51968,51968,51968,51968,51968,51968,52992,48640,49664,52480,49920,52224,51968,49152,52736,51712,52480,52224,52224,52224,52224,52224,52224,52224,52224,52224,52224,52224,52224,52224,52224,52224,52224,52224,52224,52224,52224,52224,52224,52224,52480,52736,52736,52736,52736,52736,52736,52736,52736,52480,52224,52224,52224,52480,51456,48128,50176,47360,44288,52480,52480,52480,52480,52480,52480,52480,52480,52736,52736,52992,52992,52992,52992,53504,53504,53504,53504,53760,53760,53760,53760,54016,54016,54016,54016
9984,10240,10240,10240,10240,10240,10240,10240,10240,10240,10240,10240,10240,10240,10240,10240,10240,10240,10240,10240,10240,10240,10240,10240,10240,10496,10496,10496,10496,10496,10496,10496,10496,10496,9728,7168,7424,7936,10496,26368,29184,28160,22016,22016,27648,29952,29696,32256,32768,34304,33792,33536,35840,34560,36096,27392,13056,6912,26624,36864,29440,29952,32256,33024,34816,35584,38912,43520,45824,45312,44288,42496,41216,39680,38400,37888,37376,38656,33024,22528,22272,22272,22784,23040,23808,23808,24064,24320,25088,24832,25344,25600,25856,29184,33792,37376,38400,45312,56064,54272,42240,30976,23296,21248,23552,25856,24832,23552,23040,23296,23552,24320,24320,24064,24320,24064,22784,20480,19712,19200,18432,18432,18176,18432,18688,19200,19712,19968,19712,19456,19456,19456,19456,19456,19456,19456,19456,19712,19968,20224,20480,20480,20480,20480,20224,20224,19968,19712,19200,18944,18688,18176,18176,18176,17920,17408,17152,16896,16896,16640,16640,16640,16640,16640,16384,16640,18176,20480,22784,24832,27392,29440,30720,32000,33024,33280,34048,34816,35072,35328,35328,34816,33536,32768,31232,29696,28928,27904,27648,27392,27904,28672,29440,30720,31488,32256,33792,35584,36864,38400,39680,40960,41984,42752,43264,43520,43520,43776,43776,43776,43776,43776,43776,43776,43776,43776,43776,43520,43520,43520,43264,43264,43264,43264,43264,43008,42752,42496,42496,42496,42752,43008,43264,43264,43520,44288,44544,44544,45056,46336,46848,46848,47872,48384,48896,49664,49920,50176,50688,50688,51456,51456,51712,51968,51968,51968,52480,52992,53504,53760,53760,53760,53760,54016,54272,54272,54272,54272,54272,54272,54272,54272,54272,54016,54016,53760,53504,52992,52992,52992,52992,52992,52736,52224,51456,51712,51712,51968,51968,52224,52480,52480,52224,51200,50432,49664,48896,47104,45824,45056,44800,44288,44288,44288,45056,45312,45568,45568,45312,45568,46336,47616,48640,50688,52224,53504,54784,56064,56576,56832,56832,56320,56576,57344,57600,57856,58368,58368,58368,56576,54272,53248,52224,50432,48896,48128,48384,48128,48640,50432,52480,52992,52480,52480,52480,52992,52992,52992,52992,52992,52992,52992,52992,52480,52480,52480,52480,52480,52224,52224,52480,52736,52736,52736,52736,52736,52736,52736,52480,52480,52480,52480,52480,52224,52224,48128,44288,48896,48896,50176,52480,52480,52480,52480,52224,52224,52224,52224,52224,52224,52224,52224,52480,52224,52224,52224,52224,52224,52224,52224,52224,52224,52224,52224,52224,52224,52224,52224,52224,52224,52224,52224,52224,52224,52224,52224,52224,52480,51968,52480,52992,53504,52736,53504,51968,51968,52736,52480,51968,51712,53504,48896,49152,52480,49920,51968,51712,48128,52736,52736,52480,52480,52480,52480,52480,52224,52224,52224,52224,52224,52224,52224,52224,52224,52224,52224,52224,52224,52224,52224,52224,52224,52224,52224,52480,52736,52736,52736,52736,52736,52736,52736,52736,52480,52224,52224,52224,52224,51712,47872,50432,47872,44544,52736,52736,52480,52480,52480,52736,52736,52736,52992,52992,53504,53504,53504,53504,53504,53504,53504,53504,53760,53760,53760,53760,54016,54016,54016,54016
9984,10240,10240,10240,10240,10240,10240,10240,10240,10240,10240,10240,10240,10240,10240,10240,10240,10240,10240,10240,10240,10240,10240,10240,10240,10496,10496,10496,10496,10496,10496,10496,10496,10496,9728,6400,7424,8192,10240,25344,27648,29440,27904,24064,22784,24832,28928,32256,33792,34304,33792,33024,35840,35072,35840,29184,15104,10496,28416,36608,28928,29952,32000,33024,34816,35584,38912,43520,45824,45312,44288,42496,41216,39424,38144,37632,37120,30976,23040,21504,21760,22528,22784,23040,23296,23808,24064,24320,24832,24576,25088,25344,25856,26880,30208,35840,36864,37376,48128,56576,52480,37376,28160,23296,22016,25600,24320,22784,22784,22528,22784,23040,23296,22528,21504,21248,21248,19968,19968,19456,18688,18176,17920,17920,18176,18688,18944,19200,19200,18944,18688,18688,18688,18688,18688,18688,18944,19200,19712,19968,20224,20224,20224,20224,19968,19968,19968,19712,19200,18944,18688,18176,17920,18176,17408,17152,16640,16640,16384,16128,16128,16128,16128,15616,15616,16128,17664,19712,22272,24320,26624,29184,30464,32000,32768,33536,34048,34816,35072,35328,35328,34560,33536,32256,30976,29696,28928,28160,27648,27392,27904,28928,29696,30720,31744,32768,34304,35840,37632,38656,40192,41472,41984,42752,43264,43520,43520,43776,43776,43520,43520,43520,43520,43776,43776,43520,43520,43520,43264,43008,43008,43008,43008,42752,42496,42496,42496,42496,42496,42752,42752,43008,43264,43264,43520,44288,44544,44544,45056,46336,46848,46848,47872,48384,48896,49664,49920,50176,51200,50688,51456,51456,51712,51968,51968,52224,52480,52992,52992,53504,53760,53760,53760,54016,54016,54272,54272,54272,54272,54272,54272,54272,54272,54016,54016,53760,53504,52992,52736,52992,52992,52736,52224,51456,50944,51456,51456,51712,51968,52224,52992,52736,52224,51456,50432,50176,48896,47616,46080,45312,45056,44288,44288,44288,44288,44800,44800,45056,44288,44800,45568,47360,48896,51200,52736,54272,55296,56320,56832,57344,57600,57600,57600,57856,58112,58880,59392,59136,58368,56064,54272,52992,51456,49920,48128,47872,48640,48128,48384,50432,52224,52992,52480,52480,52480,52992,52992,52992,52992,52992,52992,52992,52992,52992,52992,52480,52480,52480,52480,52224,52480,52736,52736,52736,52736,52736,52736,52736,52736,52480,52480,52480,52480,52480,52480,48384,43776,48896,48896,50176,52480,52480,52480,52480,52224,52224,52224,52224,52224,52480,52480,52480,52480,52224,52224,52224,52224,52224,52224,52224,52224,52224,52224,52224,52224,52224,52224,52224,52224,52224,52224,52224,52224,52224,52224,52224,52224,51968,52480,51968,50944,48128,39680,48128,52480,52480,38912,29184,41472,50432,52224,49152,49152,52224,49920,51968,51712,48128,52736,52736,52480,52480,52480,52480,52480,52224,52224,52224,52224,52224,52224,52224,52224,52224,52224,52224,52224,52224,52224,52224,52224,52224,52224,52224,52480,52736,52736,52736,52736,52736,52736,52736,52736,52480,52224,52224,52224,52224,51968,47104,49920,47872,44288,52224,52736,52480,52480,52480,52736,52736,52736,52992,52992,53504,53504,53504,53504,53504,53504,53504,53504,53760,53760,53760,53760,54016,54016,54016,54272
9984,10240,10240,10240,10240,10240,10240,10240,10240,10240,10240,10240,10240,10240,10240,10240,10240,10240,10240,10240,10240,10240,10240,10240,10240,10496,10496,10496,10496,10496,10496,10496,10496,10496,9728,6400,7424,7936,10240,25344,27648,28928,30720,27904,22784,22272,25344,29184,33280,34048,33536,33024,35840,35840,36096,33792,19200,19712,33536,30720,28160,29952,32000,33024,34816,35584,38912,43520,45824,45312,44288,42752,41472,39424,38400,37632,37120,28160,21504,21504,22528,22272,22784,23040,23296,23808,23808,24064,24832,24320,24576,25344,25856,27136,27904,33024,35584,36352,39424,48640,54784,45824,34560,25344,21760,25600,24064,22272,21504,21248,21248,20992,21248,21760,21248,20480,20992,20480,20480,19968,18688,17152,16896,17152,17408,18176,18432,18688,18432,17920,17920,17920,17920,17920,17920,17920,17920,18432,18688,18944,19200,19200,18944,18944,18688,18688,18688,18688,18688,18432,18176,17920,17408,17920,17152,16896,16384,16128,16128,16128,16384,15104,15104,15360,15616,15616,16896,18944,21760,24064,26368,28672,30208,31744,32768,33536,34048,34816,34816,35328,35072,34560,33280,32000,30720,29952,28928,28160,27648,27648,28160,29184,29952,30976,31488,33024,34560,36096,37376,38656,39936,41472,41728,42496,43008,43264,43520,43520,43520,43520,43520,43520,43520,43776,43776,43520,43520,43264,43008,42752,43008,42752,42496,42496,42496,42496,42752,42752,42752,43008,43008,43008,43264,43264,43520,44288,44544,44544,45056,46336,46848,46848,47872,48384,48896,49920,50176,50176,51200,50688,51456,51456,51712,51968,51968,52224,52480,52992,52992,53504,53504,53760,53760,53760,54016,54016,54016,54272,54272,54272,54272,54272,54272,54016,54016,53760,53504,52992,52736,52992,52992,52224,51456,50944,50944,51456,51456,51712,51712,52736,52992,52992,52480,51968,50688,50176,49408,47616,46080,45312,45056,44288,44032,44288,44800,44032,44800,45056,44800,45568,46336,48640,50432,52480,54016,55296,56576,57088,57344,58368,58368,58112,58112,58368,59136,59648,59904,59392,58112,55808,53760,52480,50688,49408,47616,47616,48128,48128,48640,50432,52224,52992,52480,52480,52480,52992,52992,52992,52992,52992,52992,52992,52992,52992,52992,52480,52480,52480,52480,52224,52480,52736,52736,52736,52736,52736,52736,52736,52736,52480,52480,52480,52480,52480,52480,48640,43520,48640,48896,50176,52480,52480,52480,52480,52224,52224,52224,52224,52224,52480,52480,52480,52480,52224,52224,52224,52224,52224,52224,52224,52224,52224,52224,52224,52224,52224,52224,52224,52224,52224,52224,52224,52224,52224,52224,52224,52224,51712,52224,52224,46336,28160,29952,26112,47104,47360,28160,36096,27904,47872,53504,50688,48384,52224,49920,51712,51712,48128,52736,52736,52736,52480,52480,52480,52480,52224,52224,52224,52224,52224,52224,52224,52224,52224,52224,52224,52224,52224,52224,52224,52224,52224,52224,52224,52480,52736,52736,52736,52736,52736,52736,52736,52736,52480,52224,52224,52224,52224,52224,46080,49152,47872,43264,51456,52736,52480,52480,52480,52736,52736,52736,52992,52992,53504,53504,53504,53504,53504,53504,53504,53504,53760,53760,53760,53760,54016,54016,54016,54272
9984,10496,10496,10496,10496,10496,10496,10496,10496,10496,10496,10496,10496,10496,10496,10496,10496,10240,10240,10240,10240,10240,10240,10240,10496,10496,10496,10752,10752,10752,10752,10752,10752,10496,9728,6400,7424,7936,10240,26368,29184,27904,28160,29184,28416,24576,22784,26880,32256,33280,32256,31744,34560,34304,34560,34304,19200,22528,32768,22272,26112,29952,31744,33280,34816,35584,38912,43520,45824,45312,44288,42752,41472,39680,38656,37888,37376,28160,21248,22272,20992,22272,22784,23040,23296,23808,23808,24064,24576,24320,24576,24576,25088,26624,26624,29184,33280,36352,35584,39424,51200,51712,43520,29952,23552,25856,23808,21504,20736,20480,20480,19968,20224,20736,21248,20224,21760,21248,20480,20224,18176,16384,16128,16384,16640,17408,17664,17920,17920,17408,17152,17152,17152,17152,17152,17664,17664,18176,18688,18944,18944,18688,18432,18176,18176,17920,17920,18176,18176,17920,17920,17152,17152,16896,16896,16384,15616,15616,16128,16128,15616,15104,14592,15104,14848,15104,16384,18432,20736,23552,25856,28416,29952,31488,32768,33792,34560,35328,35072,35328,35072,34560,33280,32000,30720,29696,28672,28160,27648,27904,28160,29184,30208,31232,31744,33280,34560,36352,37376,38400,39680,40960,41728,42496,43008,43008,43264,43520,43520,43520,43520,43520,43520,43520,43520,43520,43264,43264,43008,42752,42496,41984,42496,42496,42496,42752,42752,43008,43008,43264,43264,43264,43264,43264,43520,44032,44288,44288,45056,46080,46592,47104,47872,48384,48896,49920,50176,50432,51200,50688,51456,51456,51712,51968,51968,51968,52480,52736,52736,52992,53504,53504,53760,53760,54016,54016,54016,54272,54272,54272,54272,54272,54272,54016,54016,53760,53504,52992,52736,52480,51968,51456,50944,50944,50944,51456,51456,51456,51968,52736,53248,53248,52992,51968,50944,49920,49152,47872,46592,45056,45056,44288,44032,44032,44544,44032,44544,44800,45056,45824,46592,49408,50688,52992,54784,55808,56832,57600,57856,58624,58880,58880,58624,58880,59904,60160,59904,58624,57344,55040,53248,51712,50176,48384,47616,47616,48128,48128,48640,50432,51968,52480,52480,52480,52992,52992,52992,52992,52992,52992,52992,52992,52992,52992,52992,52992,52480,52480,52480,52480,52736,52480,52736,52736,52736,52736,52736,52736,52736,51968,51968,52480,52480,52480,52480,48896,43520,48640,49152,49920,52480,52480,52736,52480,52480,52480,52480,52480,52480,52480,52480,52480,52480,52224,52224,52224,52224,52224,52224,52224,52224,52224,52224,52224,52224,52224,52224,52224,52224,52224,52224,52224,52224,52224,52224,52224,51968,51456,51200,52992,43264,39680,51456,31488,36608,40448,33024,50688,31744,42240,52736,50944,48128,52224,49920,51712,51712,48128,52736,52736,52736,52480,52480,52480,52480,52224,52224,52224,52224,52224,52224,52224,52224,52224,52224,52224,52224,52224,52224,52224,52224,52224,52224,52224,52224,52480,52736,52736,52736,52736,52736,52992,52736,52480,52224,52480,52224,51968,52480,45312,48896,47616,42496,50944,52736,52480,52480,52480,52736,52736,52736,52992,52992,53248,53248,53248,53248,53248,53248,53248,53248,53504,53504,53504,53504,53760,53760,53760,53760
9984,10496,10752,10752,10752,10752,10752,10752,10752,10752,10752,10752,10752,10752,10752,10752,10752,10752,10752,10752,10752,10752,10752,10752,10752,11008,11008,11008,11008,11008,11008,11008,11008,9216,9216,7168,7168,7680,10496,27904,32256,28928,27136,27904,29696,28928,24064,22528,26624,30720,30976,31232,31744,33280,34048,33280,19200,26624,22528,19968,28416,30464,32256,33792,35328,36096,39168,43264,45568,45568,44544,43008,41472,40192,38912,38144,37632,28416,21504,20992,20736,22272,22784,23040,23296,23296,23808,23808,23552,24064,24064,24320,24320,25088,24832,26112,27648,33536,35328,37120,42752,52224,51200,39680,26624,25344,22272,19712,19200,19200,19456,21248,20224,20224,20736,21248,21504,21248,20480,19456,17920,17152,16128,16128,16384,16384,16384,16896,17152,16896,16896,16896,16896,17152,17152,17152,17408,17408,17408,17408,17408,17152,16896,16640,16640,16640,16640,16896,16896,16896,16640,16384,16384,15616,15616,15616,15616,15616,15360,15104,15104,14592,14336,13824,14336,15104,15104,17152,20224,22784,25600,27648,30208,31744,33024,33792,34560,34816,35584,35840,35328,34560,33280,31488,30208,29696,28672,27648,27648,27648,28160,28928,29952,31232,32512,33792,35072,36096,36864,38400,39168,41216,41728,42496,43008,43008,43520,43776,43776,43520,43520,43520,43776,43776,43776,43520,43520,43264,43008,42752,42752,42752,42752,42752,42752,42752,43008,43008,43264,43264,43264,43264,43264,43008,43264,43776,44032,44032,44800,45824,46336,46848,47872,48384,49408,50176,50432,50432,50688,51200,51712,51712,51968,52224,52224,52224,52480,52992,52992,53504,53504,53760,53760,53760,54016,53760,54016,54272,54528,54528,54272,54272,54272,54016,54016,53760,53504,52736,52480,51968,51456,50944,50944,50944,50944,51456,51456,51712,51968,52736,52992,52992,52736,51712,50944,49664,48896,46592,45824,45056,44288,44288,43264,44032,44032,44288,44288,45056,45824,47616,48896,51200,52992,53760,55552,57088,57600,57600,58368,58368,58624,58624,58368,59904,59904,59904,59392,58880,56832,54272,53504,50432,47872,46848,47616,47872,48384,48384,48896,50432,52224,52992,52480,52480,52480,52992,52992,52992,52992,52992,52992,52992,52992,52992,52992,52992,52992,52480,52480,52480,52736,52736,52480,52480,52480,52480,52224,52224,52224,52224,52224,52480,51712,52224,51712,48896,42752,47872,48896,49664,52480,52480,52480,52224,52224,52480,52480,52480,52480,52480,52480,52480,52480,52224,52224,52224,52224,52480,52480,52480,52480,52480,52480,52480,52480,52224,52224,52224,52224,52224,52224,52224,52224,52224,52224,52224,52224,52224,51456,51200,52224,52480,50944,31488,38656,38400,32768,50944,33280,37120,52224,50688,49408,52224,49920,51712,51712,46848,52480,52480,52480,52480,52480,52480,52480,52224,52224,52224,52224,52224,52224,52224,52224,52224,52224,52224,52224,52224,52224,52224,52224,52224,52224,52224,52224,52224,52480,52480,52480,52736,52992,52992,52992,51456,52992,52480,52480,52224,51968,43264,47616,47872,41984,50688,51456,52480,52480,52480,52480,52736,52736,52736,52736,52480,52992,52992,52992,52992,52992,52992,52992,53248,53248,53248,53248,53248,53248,53504,53504
10240,10752,10752,10752,10752,10752,10752,10752,10752,10752,10752,10752,10752,10752,10752,10752,10752,10752,10752,10752,10752,10752,10752,10752,10752,11008,11008,11008,11008,11008,11008,11008,11008,9216,9216,7168,7168,7936,10240,27648,32000,32256,30208,28160,27648,28928,28928,24832,20992,25344,26624,29696,31488,32512,33536,32768,18688,20480,16128,29952,30976,30464,32512,33536,35072,36096,39168,43264,45568,45568,44544,43008,41472,40192,39168,38144,37632,28672,22016,21248,21760,22272,22784,23040,23296,23296,23296,23808,23296,23808,23808,23808,23808,24320,24064,25088,26624,30464,33536,36352,39168,45056,50688,47872,34304,25600,21248,18688,17408,17664,18176,19712,20224,20224,20480,20736,20992,20992,20480,19712,18432,16640,16128,16128,16384,16640,16640,16896,17664,17152,17152,17152,16896,16640,16384,16384,15872,16384,16640,16640,16384,16384,16128,16128,16128,16128,16128,16384,16384,16384,16128,15616,15616,15616,15360,15360,15104,14848,14848,14592,14336,13824,13312,13056,13312,14336,14336,16384,19712,22528,25344,27904,29952,31744,33024,33792,34816,35072,35584,36096,35584,34560,33024,31488,30208,29440,28672,27904,27904,27904,28416,29184,30208,31488,33280,34304,35072,36096,37120,38144,39168,40960,41728,42496,42752,43008,43520,43776,43776,43520,43520,43520,43776,43776,43776,43520,43520,43264,43264,43008,43008,43008,43008,43008,43008,43264,43008,43008,43264,43264,43264,43264,43264,42752,43008,43520,44032,44032,44544,45824,46336,46848,47872,48384,49408,50176,50432,50432,50688,51200,51712,51712,51968,52224,52224,52224,52480,52992,52992,52992,53504,53504,53760,53760,53760,53760,53760,54016,54528,54528,54272,54272,54272,54016,54016,53760,53504,52736,52480,51968,51456,50944,50944,50944,50944,51456,51456,51712,51968,52480,52736,52736,52480,51712,50688,49664,48384,46336,45568,45056,44800,44032,43776,43776,44544,45056,45568,46592,47360,48896,50688,52992,54784,55040,56064,57344,57856,57856,58368,58624,59136,58880,58880,59648,59648,59392,58624,57856,55808,54784,52224,49664,47104,45312,46080,46592,47616,48128,48896,50432,52224,52992,52480,52480,52992,52992,52992,52992,52992,52992,52992,52992,52992,52992,52992,52992,52992,52480,52480,52480,52480,52480,52224,52224,52224,52224,51968,51968,51968,51968,51968,52224,51968,51968,51712,48640,42752,47872,48640,49920,51968,52224,52224,51968,52224,52480,52480,52480,52480,52480,52480,52480,52480,52224,52224,52224,52224,52224,52224,52224,52224,52224,52480,52224,52224,52224,52224,51968,51968,51968,51968,51968,52224,51968,52224,51968,51712,51456,51968,51968,50432,50176,34816,27136,47616,37888,32000,51200,33280,37120,53248,51200,46848,51968,49920,51712,51712,46848,52480,52480,52480,52480,52480,52224,52224,51968,51968,51968,51968,51968,51968,51968,51968,52224,52224,52224,52224,52224,52224,52224,52224,52224,52224,52224,52224,52224,52224,52224,52480,52736,52992,53248,52992,52736,51456,52480,52480,51712,51200,39168,45312,44032,39680,49920,52736,51456,51712,52736,52736,52736,52480,52736,52736,53248,53248,53248,52992,53248,53248,53248,53504,53504,53504,53504,53248,52992,52992,53248,53248
10240,10752,10752,10752,10752,10752,10752,10752,10752,10752,10752,10752,10752,10752,10752,10752,10752,10752,10752,10752,10752,10752,10752,10752,10752,11008,11008,11008,11008,11008,11008,11008,11008,9728,9216,7168,7168,8192,9216,27392,32768,31488,32000,30720,28160,27904,28672,27136,25088,22272,22784,26624,31232,32000,33024,32256,17920,13824,19456,36096,29952,31232,32512,33280,34304,35840,39168,43264,45568,45568,44544,43008,41472,40192,39168,38144,37632,29184,22272,21760,21760,22016,22528,23040,23296,23296,23296,23296,23296,23808,23808,23808,23808,24064,24064,24576,24832,25856,28672,32768,34816,36608,45056,49664,42496,29952,22272,19200,17408,17408,18176,19200,21248,20224,20480,20736,20480,20480,20736,20224,18944,16640,16128,16128,16640,16896,16896,17152,17920,17664,17152,17152,16640,16384,15872,15104,15104,15104,15104,15104,15104,15104,15104,15104,15104,15104,15360,15360,15616,15616,15616,15360,15360,15360,15104,14848,14592,14592,13824,13312,13312,12544,12288,12288,12288,13056,13312,15616,18688,22016,24832,27136,29184,30976,32768,33536,34304,35072,35584,36096,35584,34560,33024,31488,30464,29440,28672,27904,27904,28416,28672,29440,30464,32000,33536,34816,35328,36352,37120,38144,39168,40960,41984,42496,42752,43264,43776,43776,43776,43776,43776,43776,43776,43776,43776,43776,43776,43520,43520,43264,43264,43264,43264,43264,43264,43264,43264,43264,43264,43264,43264,43264,43264,42752,43008,43520,44032,44032,44544,45824,46336,46848,47872,48384,49408,50176,50432,50432,50688,51200,51712,51712,51968,52224,52224,52224,52480,52992,52992,52992,53504,53504,53760,53760,53760,53760,53760,54016,54528,54528,54272,54272,54272,54016,54016,53760,53504,52736,52224,51968,51456,50944,50944,50944,50944,51456,51712,51968,52480,52736,52736,52736,52736,51712,50688,49664,48384,47360,46592,45312,45056,44544,44032,45056,45568,46848,47616,48384,49408,50944,52480,54272,55808,56064,56832,57344,57856,58112,58368,59136,59648,59136,59392,59392,59648,59136,58112,57088,54784,52224,48896,46080,44544,42752,43520,45824,47104,48128,49408,50688,52224,52992,52992,52992,52992,53248,53248,53248,53248,53248,53248,53248,53248,53248,53248,53248,53248,52992,52992,52992,52992,52480,52480,52224,52224,52224,51968,51968,51968,52224,52224,52224,51968,51968,51712,48640,42752,47872,48896,50176,51968,52224,51968,51968,52224,52480,52480,52480,52480,52480,52480,52480,52480,52480,52480,52480,52224,52224,52224,52224,52224,52224,52480,52224,52224,52224,52224,51968,51968,51968,51968,51968,52224,51968,52224,51968,51712,51456,50688,52480,51456,52480,45056,27904,44032,43520,29952,49664,34304,38144,51968,51456,46848,51968,49920,51712,51712,46848,52480,52480,52480,52480,52480,52224,52224,51968,51968,51968,51968,51968,51968,51968,51968,52224,52224,52224,52224,52224,52224,52224,52224,52224,52224,52224,52224,52224,52224,52224,52480,52736,52992,53248,52992,54016,52224,52736,52480,52992,50944,36352,41216,40192,37888,49152,54272,54528,54528,54528,54528,54528,54528,54272,54272,52992,52224,50944,49920,49152,48640,48128,47616,46336,45824,45056,44800,43008,43008,42240,41984
