0,0,0,0,0,0,0,0,1,1,0,0,0,0,0,0,0,0,0,0,0,0,0,0,0,0,0,0,0,25,90,173,223,247,242,237,231,226,225,224,223,223,224,224,226,227,227,217,192,188,203,207,210,211,211,210,208,205,204,203,201,199,195,190,182,178,177,177,177,179,181,182,182,182,183,184,185,186,186,186,188,189,189,189,189,189,189,189,189,190,190,191,192,193,194,196,200,202,206,209,213,216,217,220,222,225,227,229,230,231,234,237,240,243,243,245,248,228,177,98.00001,48,25,36,43,49,54,59,63,66,71,75,80,87,95,105,103,87,50,29,51,132,165,167,150,113,54,14,0,3,29,73,98.00001,99.00001,89,72,71,91,100,99.00001,78,38,19,22,23,20,33,56,61,41,35,35,31,32,33,32,30,17,16,28,29,28,30,33,34,30,27,23,24,27,29,32,32,32,31,31,31,31,31,31,31,30,30,31,32,33,34,35,36,40,41,42,44,47,49,50,50,49,49,48,48,48,48,50,50,51,54,54,54,56,58,59,59,58,58,56,54,54,52,54,54,57,58,61,63,65,65,65,67,71,73,74,74,75,75,74,72,68,68,71,73,75,75,74,76,79,80,82,83,84,85,86,87,88,89,89,90,90,90,91,91,92,92,92,91,93,94,96.00001,98.00001,102,103,101,103,104,106,107,109,109,108,107,104,96.00001,70,28,7,15,23,31,28,9,8,22,41,70,82,85,87,88,89,89,89,90,90,90,90,89,89,88,91,98.00001,101,104,105,106,106,106,107,107,108,108,108,109,110,111,110,109,108,109,109,109,109,108,108,109,109,110,111,112,112,113,115,120,121,120,119,116,115,114,114,114,115,116,117,118,119,119,120,123,123,123,121,120,119,119,119,118,118,119,121,124,126,127,127,123,122,123,125,130,136,141,151,163,152,115,64,17,0,0,0,0,19,60,123,166,179,128,143,148,161,179,185,180,175,168,146,107,52,14,0,0,1,1,9,28,59,52,20,15,23,38,44,41,39,38,38,38,39,40,41,43,43,42,42,43,43,44,45,47,48,47,47,48,50,54,54,54,52,52,51,51,51,51,51,54,54,54,54,56,57,58,58,56,54,54,54,54,54,54,54,52,51,51,52,52,54,54,54,57,58,59,60,61,60,59,58,59,59,59,59,59,59,59,60,60,60,60,60,60,60,60,60,60,60,59,59,59,59,60,60,61,61,59,58,58,59,61,62,64,65,64,63,61,60,60,61,63,54,34,17,4,2,2,3,0,1,7,22,36,43,40,29,13,6,7,6,8,9,9,23,51,72,71,68,66,64,62,62,66,68,63,35,5,0,4,25,54,95,114,109,85,47,10,0,0,3,20,21,4,0,0,0,0,6,30,57,67,68,64,60,57,40,7,0,0,38,142,170,146,113,114,88,84,120,150,142,66,25,7,2,0,0,0,0,0,0,0,0,0,0,0,0
0,0,0,0,0,0,0,0,0,0,0,0,0,0,0,0,0,0,0,0,0,0,0,0,0,0,0,0,0,4,28,86,203,247,242,238,230,226,221,219,218,218,219,222,225,227,229,223,212,206,206,206,207,208,209,211,211,208,204,202,199,197,195,191,183,179,178,177,176,177,179,179,180,180,181,182,183,184,184,184,186,187,187,187,187,187,187,187,188,189,190,191,193,194,195,197,199,201,205,208,212,215,216,219,222,224,227,227,228,229,232,235,237,241,243,246,248,227,176,98.00001,49,25,36,43,49,54,62,66,69,74,77,81,87,95,106,94,38,31,48,98.00001,144,167,168,151,112,62,15,1,9,28,39,47,48,46,41,42,47,49,47,43,39,38,41,41,39,40,46,47,44,42,42,41,39,38,38,36,34,36,42,45,49,52,57,58,52,49,46,45,44,45,46,47,47,47,47,47,47,47,47,48,51,52,54,54,54,56,58,59,60,60,61,62,64,64,65,65,66,67,69,70,71,71,71,71,73,73,75,77,79,80,81,83,83,79,77,76,75,73,69,68,69,71,72,74,77,79,80,82,85,87,88,89,90,90,89,88,86,86,87,88,88,88,88,91,94,96.00001,100,101,102,103,102,102,103,103,104,105,106,107,107,106,103,102,104,106,106,107,109,111,115,117,118,118,120,120,118,117,116,115,114,106,92,59,20,17,58,95,106,94,41,19,9,20,69,88,93,97.00001,99.00001,100,99.00001,99.00001,100,101,101,101,99.00001,98.00001,96.00001,99.00001,103,106,107,108,110,111,111,111,111,111,111,111,111,112,112,111,108,108,109,110,110,109,108,108,109,110,110,111,111,111,111,114,118,119,119,119,118,117,117,117,116,116,117,118,120,120,120,120,122,123,122,122,121,121,121,120,118,117,117,118,121,122,122,122,121,122,123,126,131,136,142,151,159,157,128,71,23,0,0,0,0,4,20,50,116,126,79,82,54,79,161,185,180,174,167,145,108,54,14,0,0,1,2,4,12,13,9,6,8,20,33,40,41,40,38,36,34,34,35,35,38,39,39,39,41,42,42,43,45,46,46,46,47,48,50,52,56,56,54,54,52,51,51,51,50,50,50,51,52,54,54,54,52,51,51,51,51,51,51,51,51,51,51,51,52,52,52,52,52,54,54,56,57,58,58,58,58,58,58,58,58,58,58,59,60,60,60,60,60,60,60,60,60,59,59,58,58,59,59,60,60,60,59,59,59,59,60,61,62,62,59,58,56,56,57,58,61,52,28,10,2,4,25,13,1,0,1,20,63,111,112,77,50,34,46,35,38,50,56,67,103,102,84,73,68,65,64,63,66,67,62,33,4,0,14,51,75,98.00001,123,132,114,68,13,0,0,23,90,90,23,0,0,0,0,8,45,64,66,65,61,57,54,36,8,0,0,24,87,134,122,91,101,70,61,74,57,41,17,10,23,17,4,1,0,0,0,0,0,0,0,0,0,0
0,0,0,0,0,0,0,0,0,0,0,0,0,0,0,0,0,0,0,0,0,0,0,0,0,0,0,0,0,0,0,56,195,249,243,236,230,225,219,217,216,216,217,221,225,228,230,226,220,214,208,205,206,207,209,212,213,209,204,200,197,196,194,191,183,180,179,178,176,176,178,178,179,179,180,181,182,183,183,183,184,185,186,186,186,186,186,186,187,188,190,191,193,195,196,197,199,201,204,207,211,214,215,218,222,224,226,227,227,228,231,234,236,240,243,246,248,227,174,96.00001,48,27,35,42,49,54,63,68,70,75,79,83,89,94,98.00001,79,20,21,71,128,155,170,171,152,114,58,14,4,17,32,36,42,41,42,44,44,43,42,41,44,54,61,63,63,62,60,58,58,61,63,63,62,60,59,58,58,59,60,62,67,72,76,80,80,75,71,69,67,65,65,66,66,67,67,67,67,67,67,67,69,73,75,75,76,77,78,79,80,81,81,81,81,81,81,81,83,86,87,89,90,91,92,92,92,93,93,94,96.00001,99.00001,100,101,103,102,100,98.00001,97.00001,96.00001,91,85,82,81,82,83,85,87,89,91,93,95,97.00001,99.00001,101,102,102,101,100,99.00001,98.00001,98.00001,98.00001,98.00001,98.00001,98.00001,101,105,108,112,113,114,114,112,112,111,111,112,113,114,115,116,115,110,109,112,114,115,117,118,121,123,125,126,128,128,127,125,123,121,120,118,108,87,52,13,24,99.00001,130,137,120,86,39,8,17,69,91,98.00001,103,105,106,105,105,105,106,107,107,105,103,101,103,106,108,109,110,113,113,113,113,112,111,111,111,111,111,111,109,107,106,108,109,109,108,106,106,107,107,107,107,107,107,107,109,115,117,117,117,117,117,117,117,116,116,117,118,119,120,120,120,120,120,120,120,120,120,120,119,117,116,117,118,120,121,121,121,121,122,124,126,129,135,143,150,156,147,125,91,20,0,0,0,0,1,2,16,49,56,38,19,6,47,143,180,178,174,166,148,118,65,21,0,0,1,4,5,4,2,1,2,6,20,32,39,40,40,38,35,33,33,33,33,35,36,36,38,40,41,41,42,43,43,43,44,45,46,48,50,54,54,54,51,49,49,49,49,49,49,49,49,50,51,52,52,50,49,49,49,49,49,49,49,50,51,51,51,51,51,51,51,51,51,52,54,54,56,57,57,57,57,57,54,54,54,54,56,57,58,58,58,58,58,58,58,58,58,57,57,57,57,58,59,59,59,59,59,59,59,59,59,59,58,54,52,51,51,52,56,60,51,25,7,2,3,22,12,2,0,10,36,77,121,122,107,81,62,50,65,84,99.00001,111,124,135,125,96.00001,78,69,65,64,63,65,65,60,32,6,1,8,32,57,104,148,161,142,110,35,4,1,33,116,118,43,4,0,0,0,6,42,62,63,63,59,56,51,34,6,0,0,17,70,116,112,105,89,51,36,17,9,3,0,4,43,24,6,1,1,0,0,0,0,0,0,0,0,0
0,0,0,0,0,0,0,0,0,0,0,0,0,0,0,0,0,0,0,0,0,0,0,0,0,0,0,0,0,0,0,57,199,252,242,234,229,224,218,216,216,216,217,221,225,228,230,226,220,214,208,205,206,207,209,212,212,208,203,200,197,195,194,190,183,180,179,178,176,176,177,178,178,179,180,181,182,183,183,183,184,185,186,186,186,186,186,186,187,188,190,191,193,195,196,197,199,201,204,207,211,214,215,218,222,224,226,227,227,228,231,234,237,241,242,245,249,227,172,94,48,27,35,42,49,54,63,67,70,75,80,86,93,94,83,52,6,30,112,154,166,173,174,153,108,52,17,10,27,51,66,76,75,75,75,75,74,74,72,73,78,81,82,84,86,86,86,86,88,88,89,89,88,87,88,87,84,84,86,89,93,96.00001,98.00001,97.00001,93,90,88,87,85,85,86,87,88,88,89,90,90,90,90,92,96.00001,98.00001,99.00001,99.00001,100,101,102,103,103,104,104,104,104,104,104,105,109,111,111,112,113,114,114,114,113,113,114,116,119,121,122,123,121,118,117,116,115,110,104,99.00001,93,91,92,94,95,97.00001,98.00001,100,103,105,107,109,111,111,109,107,106,106,106,106,106,106,106,109,114,117,120,120,120,119,117,116,116,117,118,119,119,120,121,120,118,117,118,119,121,124,125,126,126,127,128,130,131,130,128,127,126,125,122,108,83,43,9,32,112,139,141,132,116,89,21,16,68,93,101,106,108,108,108,108,107,107,108,109,108,106,103,104,108,110,111,112,115,115,115,115,113,112,111,111,111,111,111,110,107,107,108,109,109,108,107,106,105,104,104,104,104,104,104,107,113,115,115,115,115,115,115,115,115,115,115,116,117,118,119,119,119,119,119,119,119,119,119,118,117,117,118,119,120,121,121,121,123,124,123,124,127,133,143,147,145,114,85,54,12,0,0,0,0,1,1,3,8,8,4,3,0,33,132,173,174,174,167,155,134,95,21,0,0,1,9,10,3,1,1,2,6,21,33,39,40,39,36,34,32,31,31,32,33,35,36,38,39,40,41,42,42,42,42,43,44,45,46,47,50,51,50,49,48,48,48,48,48,48,48,48,49,50,51,51,49,48,48,48,48,48,48,48,49,50,50,50,50,50,50,50,50,50,50,51,54,54,54,54,54,54,54,52,52,52,52,54,54,54,54,54,54,54,54,56,58,58,58,58,58,58,58,59,59,59,59,59,59,59,59,58,58,56,54,51,50,50,51,54,60,51,24,8,2,1,3,2,0,7,33,70,91,103,103,96.00001,90,76,56,79,107,132,151,157,156,138,107,84,71,64,63,62,63,63,58,32,4,0,2,14,47,87,170,190,176,123,65,28,6,33,119,126,74,23,2,0,0,4,29,49,59,61,57,54,50,34,5,0,0,17,68,117,101,91,62,38,7,1,1,1,1,3,12,12,4,1,0,0,0,0,0,0,0,0,0,0
0,0,0,0,0,0,0,0,0,0,0,0,0,0,0,0,0,0,0,0,0,0,0,0,0,0,0,0,0,0,0,54,188,240,236,231,226,222,217,215,216,216,217,221,225,228,230,226,220,214,208,205,206,207,209,211,211,207,202,199,196,195,193,189,184,181,179,178,175,175,176,177,178,179,180,181,182,183,183,183,184,185,185,186,186,186,186,186,187,188,190,191,193,195,196,197,199,201,204,207,211,214,215,218,222,224,226,227,227,228,231,234,236,239,241,245,249,221,153,74,41,27,35,42,49,54,63,67,70,75,81,87,94,94,71,34,15,40,132,169,170,169,165,140,90,38,12,14,36,68,87,94,93,92,92,92,92,92,91,91,94,94,95,97.00001,99.00001,101,102,102,102,102,103,104,104,104,106,104,100,99.00001,101,103,105,108,109,108,104,102,102,101,101,101,101,102,101,102,103,104,105,105,105,108,110,111,113,113,114,115,116,117,116,116,116,116,116,116,116,118,122,123,124,124,125,127,128,127,125,124,125,127,130,132,133,134,132,130,129,128,127,122,115,109,101,99.00001,99.00001,100,100,101,101,103,107,110,112,115,116,116,115,113,112,112,112,112,112,112,112,114,120,123,123,123,121,120,119,118,119,120,121,121,121,121,122,122,121,121,122,124,127,129,128,128,127,128,129,131,132,132,130,129,128,126,124,111,87,47,10,33,114,141,133,130,130,103,30,16,68,93,101,107,108,108,108,108,107,107,108,109,109,108,105,105,109,111,112,113,115,116,116,115,113,112,111,111,110,110,109,109,107,107,108,108,108,108,107,105,103,101,101,101,101,101,101,104,110,113,113,113,113,113,113,113,113,113,113,114,115,116,117,118,118,118,118,118,118,118,118,117,116,116,116,118,119,120,120,120,122,123,122,122,124,128,135,135,126,109,59,57,5,0,0,0,0,1,1,0,0,0,0,0,0,31,129,148,172,173,168,156,137,96.00001,24,0,0,1,10,12,2,0,1,2,7,21,32,38,38,36,34,33,30,30,30,31,32,35,35,36,38,40,41,41,41,41,41,41,42,43,44,45,47,47,47,47,46,46,46,46,45,46,46,47,48,49,50,49,48,47,47,47,47,47,47,47,48,49,49,49,49,49,49,48,48,48,48,49,51,52,52,54,51,50,50,50,50,50,50,51,52,52,52,52,52,52,52,54,56,58,59,59,59,59,58,58,58,58,58,58,58,58,58,57,56,54,52,51,50,49,50,52,58,50,27,10,2,0,0,0,0,13,59,80,87,96.00001,88,87,87,81,79,89,122,151,167,172,167,146,115,90,71,63,61,60,62,62,57,35,21,4,1,13,47,123,188,214,199,165,119,48,14,35,123,136,91,43,20,4,1,2,14,36,54,60,54,51,49,32,4,0,0,15,62,111,125,111,69,19,1,0,0,0,0,1,3,4,1,0,0,0,0,0,0,0,0,0,0,0
0,0,0,0,0,0,0,0,0,0,0,0,0,0,0,0,0,0,0,0,0,0,0,0,0,0,0,0,0,0,0,44,162,213,222,227,222,218,215,214,215,216,217,221,225,228,230,226,220,214,208,205,206,207,209,211,210,206,201,198,195,194,192,189,185,183,181,179,175,174,175,176,178,179,180,181,182,183,183,183,184,185,185,185,186,186,186,186,187,188,190,191,193,195,196,197,199,201,204,207,211,214,215,218,222,224,226,227,227,228,231,233,234,236,238,243,251,210,85,35,25,27,35,42,49,54,63,68,70,76,81,89,95,86,59,29,23,57,141,171,167,160,144,107,44,12,4,14,50,79,95,104,102,100,100,99.00001,98.00001,98.00001,99.00001,100,102,103,103,103,104,105,105,105,104,104,106,108,110,112,114,113,108,107,108,109,110,111,112,111,108,107,108,108,109,109,108,108,109,110,111,112,114,115,116,117,119,119,119,120,121,122,123,123,122,122,122,122,122,122,122,123,126,128,129,130,131,132,133,132,129,128,129,131,135,137,138,139,137,135,134,133,132,127,121,113,107,104,103,102,101,100,100,102,108,112,115,118,119,119,118,116,115,115,115,115,115,115,115,117,121,123,123,121,119,119,119,119,118,119,119,119,118,118,118,118,118,119,121,125,132,131,130,127,126,126,129,132,134,134,133,131,128,126,123,115,101,71,17,30,109,133,126,121,127,101,25,16,67,91,100,104,107,107,107,107,106,106,108,109,109,108,106,107,108,110,111,112,114,115,115,115,113,112,111,110,109,107,107,106,105,106,107,107,107,107,106,104,101,99.00001,99.00001,99.00001,99.00001,99.00001,99.00001,102,107,109,109,109,109,109,109,110,111,111,111,112,113,114,115,116,116,117,117,117,117,117,117,116,114,113,114,115,116,117,117,118,119,120,118,118,121,124,119,113,80,75,32,13,2,0,0,0,0,1,0,0,0,0,0,0,0,35,136,172,173,171,169,151,115,62,17,0,0,0,7,7,1,0,0,2,7,21,31,35,34,33,31,29,28,27,27,28,32,33,33,34,35,36,38,38,39,38,38,39,40,41,42,42,43,43,43,43,44,44,44,44,43,43,43,43,45,47,48,48,47,47,47,47,47,47,47,47,47,48,48,48,48,48,48,47,45,45,45,45,47,48,49,48,49,48,48,48,48,48,48,49,50,50,50,50,50,50,50,51,54,57,59,60,60,59,57,54,54,54,54,54,54,54,54,54,54,52,54,52,50,49,48,49,52,47,32,15,4,0,0,0,0,13,60,80,84,84,79,75,75,77,82,99.00001,131,149,163,166,163,148,117,92,71,61,60,58,60,61,56,42,56,27,7,19,72,143,203,232,224,196,148,75,22,36,130,147,93,65,57,35,8,1,2,15,48,57,51,48,45,30,4,0,0,13,52,98.00001,116,104,39,7,1,0,0,0,0,0,1,1,0,0,0,0,0,0,0,0,0,0,0,0
0,0,0,0,0,0,0,0,0,0,0,0,0,0,0,0,0,0,0,0,0,0,0,0,0,0,0,0,0,0,0,34,107,181,215,224,219,216,214,214,215,216,217,221,225,228,230,226,220,214,208,205,206,207,209,211,210,206,200,197,194,193,191,189,186,184,181,179,175,173,174,175,178,179,180,181,182,183,183,183,184,185,185,185,185,186,186,186,187,188,190,191,193,195,196,197,199,201,204,207,211,214,215,218,222,224,226,227,227,228,231,233,233,235,237,243,252,204,66,13,19,27,35,42,49,54,63,68,71,76,82,84,83,72,32,25,44,94,148,163,155,137,113,63,20,1,0,16,62,92,101,105,104,102,101,100,100,100,102,103,105,106,106,107,107,106,105,104,103,104,107,109,112,115,117,117,113,111,111,111,112,112,112,111,109,109,111,112,113,114,112,112,112,112,114,115,117,119,120,121,120,120,120,121,122,123,124,124,123,122,122,122,122,122,122,123,127,128,129,130,132,133,133,132,129,129,130,132,136,138,139,140,139,139,137,136,135,130,124,117,110,107,105,103,101,99.00001,98.00001,100,107,112,115,117,118,118,117,116,115,114,114,114,114,114,114,116,121,122,121,119,118,118,120,120,119,118,118,118,116,116,115,115,115,117,120,125,133,136,123,120,121,123,128,131,133,134,133,131,127,125,123,117,109,78,20,25,91,117,119,121,124,100,24,15,66,90,98.00001,102,103,105,105,105,104,105,107,108,109,108,107,107,107,108,109,110,112,113,111,112,112,111,110,108,106,104,103,102,102,103,104,105,105,104,103,101,99.00001,98.00001,98.00001,98.00001,98.00001,98.00001,98.00001,99.00001,104,106,106,106,106,106,106,107,109,110,110,111,112,113,114,115,116,116,116,116,116,116,116,115,112,111,111,112,114,115,115,116,116,116,115,116,118,115,102,72,48,23,10,2,1,0,0,0,0,0,0,0,0,0,0,0,1,40,141,178,174,170,169,148,105,50,13,0,0,0,3,3,0,0,0,2,6,20,29,33,32,31,29,28,27,24,24,27,30,33,33,34,35,36,36,36,36,36,36,36,38,40,41,40,40,39,39,40,42,42,42,42,41,41,41,42,43,44,46,47,47,47,47,47,47,47,47,47,47,47,47,47,47,47,47,46,43,43,43,44,45,46,47,46,47,46,46,46,46,46,46,47,48,48,48,48,48,48,48,49,50,54,57,59,59,57,54,51,51,51,51,51,51,51,51,51,50,51,52,51,49,48,46,47,49,48,41,28,4,0,0,0,0,12,61,80,81,79,74,73,74,77,82,98.00001,131,148,158,162,162,149,120,95,73,61,58,57,57,58,58,52,67,45,21,30,81,158,219,241,237,210,161,84,28,34,125,153,127,113,102,80,17,0,0,7,46,56,50,46,43,29,4,0,0,9,40,62,78,70,23,2,0,0,0,0,0,0,0,0,0,0,0,0,0,0,0,0,0,0,0,0
0,0,0,0,0,0,0,0,0,0,0,0,0,0,0,0,0,0,0,0,0,0,0,0,0,0,0,0,0,0,0,23,79,151,202,223,218,216,214,214,215,216,217,221,225,228,230,226,220,214,208,205,206,207,209,211,210,206,200,197,194,192,191,189,186,184,181,179,175,173,173,174,177,179,180,181,182,183,183,183,184,185,185,185,185,185,185,186,187,188,190,191,193,195,196,197,199,201,204,207,211,214,215,218,222,224,226,227,227,228,231,233,234,235,237,242,252,204,64,9,17,27,35,42,49,54,63,68,71,77,84,77,61,32,5,20,71,120,141,147,132,106,47,17,4,0,0,19,76,101,100,101,102,101,98.00001,97.00001,97.00001,97.00001,99.00001,100,102,103,106,107,107,105,102,100,100,101,104,107,111,114,117,117,114,112,111,111,111,111,110,109,108,109,111,113,116,117,116,114,112,111,113,115,117,119,121,121,120,119,120,121,122,123,124,124,122,121,121,121,121,121,121,123,127,128,128,129,131,132,133,132,129,129,131,133,137,138,139,140,142,142,140,138,137,133,127,120,112,108,105,102,99.00001,97.00001,96.00001,97.00001,103,106,109,111,112,112,111,110,109,109,109,109,109,109,109,111,115,116,115,115,115,116,119,120,119,118,118,118,116,114,114,113,112,114,119,123,132,123,109,106,115,121,125,129,131,132,132,130,125,123,121,117,111,81,19,14,62,97.00001,113,118,122,97.00001,24,15,65,86,95,99.00001,100,102,102,102,102,103,106,108,108,108,107,106,105,105,106,107,108,108,108,109,111,111,109,107,105,103,101,100,100,101,103,104,104,103,101,100,99.00001,99.00001,99.00001,99.00001,99.00001,99.00001,99.00001,100,104,105,105,105,105,105,105,106,107,108,110,111,112,113,114,115,116,116,116,116,116,116,116,114,111,109,109,110,111,112,113,113,112,112,112,113,117,110,95,51,16,4,3,1,0,0,0,0,0,0,0,0,0,0,0,0,1,44,147,183,177,171,167,145,101,47,12,0,0,0,0,0,0,0,1,2,6,17,25,30,31,30,28,27,25,23,23,25,29,32,33,34,35,35,36,35,35,35,35,35,36,38,40,39,35,34,35,36,39,40,40,40,40,40,40,41,42,43,44,45,47,47,47,47,47,47,47,47,46,45,45,45,45,45,45,45,41,41,42,43,44,44,45,44,44,44,44,44,44,44,44,44,44,45,45,45,45,45,45,45,46,48,52,54,54,52,48,46,46,46,46,46,46,46,46,46,47,47,48,48,47,45,42,43,47,50,54,42,9,0,0,0,0,12,60,79,79,77,75,75,80,80,80,95,127,147,158,162,162,150,124,99.00001,76,62,54,51,51,54,63,65,76,66,49,51,88,163,220,244,239,211,160,83,24,29,111,140,147,143,132,82,25,0,0,6,46,57,50,46,43,29,4,0,1,8,29,62,66,34,9,0,0,0,0,0,0,0,0,0,0,0,0,0,0,0,0,0,0,0,0,0
0,0,0,0,0,0,0,0,0,0,0,0,0,0,0,0,0,0,0,0,0,0,0,0,0,0,0,0,0,0,0,15,54,128,190,216,216,214,213,213,214,216,217,221,225,227,230,226,220,214,209,205,207,208,210,211,210,206,201,198,194,191,190,189,186,184,182,179,175,173,173,174,177,178,179,180,181,182,182,183,184,184,184,184,184,184,184,186,187,188,189,191,193,194,195,196,199,201,204,207,211,214,215,218,221,224,226,226,226,227,231,233,234,235,237,242,252,203,62,8,17,25,35,41,47,54,62,67,71,77,82,69,32,7,0,22,98.00001,131,129,123,97.00001,81,19,0,0,1,7,32,86,102,101,100,100,98.00001,96.00001,95,95,97.00001,99.00001,100,101,103,105,106,106,105,101,100,100,102,104,107,111,113,116,116,113,111,111,110,110,110,110,109,107,108,110,112,116,117,116,114,112,111,113,115,116,118,120,120,119,119,120,121,122,123,124,123,122,121,121,121,121,122,122,123,126,128,128,129,130,131,131,130,129,129,131,133,136,137,138,140,142,142,140,138,137,133,128,122,114,109,104,101,98.00001,97.00001,97.00001,98.00001,101,103,106,108,109,109,108,106,105,105,106,106,106,106,106,108,112,113,113,113,114,116,118,119,119,118,118,117,115,114,113,111,110,111,116,120,124,120,93,107,114,119,123,126,129,130,131,129,123,121,120,117,112,83,20,8,38,79,108,118,122,97.00001,24,13,54,79,91,96.00001,97.00001,98.00001,100,100,100,102,104,106,107,107,106,105,103,101,101,102,104,104,105,107,108,108,107,105,104,102,101,100,100,101,102,103,103,102,101,100,99.00001,99.00001,99.00001,99.00001,99.00001,99.00001,99.00001,100,103,104,104,104,104,103,103,104,105,107,107,108,110,111,112,113,114,115,115,115,115,115,115,113,109,107,107,108,109,109,110,110,109,109,110,112,116,107,86,46,9,0,1,1,0,0,1,1,0,0,0,0,1,0,0,0,1,46,149,185,179,171,166,144,99.00001,45,9,0,0,0,0,0,0,0,1,2,4,14,24,29,29,29,27,24,23,21,21,23,28,31,32,32,33,34,34,33,34,33,34,34,35,36,38,38,34,33,33,35,36,38,38,38,39,40,40,40,41,41,42,43,45,45,45,46,46,47,47,46,45,44,44,44,44,44,44,43,41,41,41,41,42,43,43,43,43,42,42,42,42,42,42,43,43,43,43,43,43,43,43,43,43,45,48,49,49,48,45,43,43,43,43,44,44,43,43,43,44,45,46,47,46,45,42,42,45,49,57,48,19,4,2,0,0,10,56,75,79,80,80,83,92,84,62,71,124,148,160,164,162,151,126,102,77,62,54,48,48,49,66,73,80,78,72,73,114,184,227,245,238,210,158,81,22,15,63,116,138,147,135,103,25,0,0,5,45,57,51,46,39,23,4,1,0,4,15,21,23,12,2,0,0,0,0,0,0,0,0,0,0,0,0,0,0,0,0,0,0,0,0,0
0,0,0,0,0,0,0,0,0,0,0,0,0,0,0,0,0,0,0,0,0,0,0,0,0,0,0,0,0,0,0,10,45,94,182,212,212,211,210,210,213,215,217,219,224,227,229,227,221,216,211,208,208,210,212,212,210,207,204,200,194,191,188,187,187,185,183,180,176,175,175,175,176,177,178,179,180,181,181,181,183,183,183,183,183,183,183,184,187,188,188,190,192,193,193,195,197,200,203,206,210,213,215,217,220,223,225,225,224,225,228,231,232,235,238,243,252,203,63,8,19,25,33,39,44,50,59,66,74,78,77,54,17,2,0,27,97.00001,117,105,78,80,47,9,0,0,9,33,65,87,100,101,101,98.00001,96.00001,94,94,96.00001,98.00001,101,102,104,104,105,105,105,105,104,103,104,105,107,109,110,112,113,113,110,109,109,109,109,110,110,109,108,107,108,109,113,114,114,114,112,112,112,113,115,116,116,117,118,119,120,121,121,122,123,123,122,122,122,123,123,124,124,124,126,127,128,128,129,129,129,129,128,129,130,131,134,135,135,137,141,141,139,137,134,130,127,122,114,108,102,98.00001,97.00001,98.00001,99.00001,100,100,101,103,105,106,105,103,101,101,102,104,105,104,104,106,108,111,112,112,113,114,115,116,117,119,120,120,119,116,115,114,112,108,108,111,115,120,121,118,117,117,118,119,123,126,127,128,127,121,119,117,115,111,84,23,6,25,66,101,120,124,98.00001,24,7,34,66,84,94,94,96.00001,98.00001,99.00001,99.00001,101,102,102,104,104,105,104,101,99.00001,98.00001,97.00001,97.00001,99.00001,101,103,104,104,103,103,102,102,101,101,101,101,102,102,102,102,101,100,100,99.00001,99.00001,99.00001,98.00001,98.00001,98.00001,99.00001,102,103,102,101,101,100,99.00001,100,104,105,106,106,106,106,107,108,109,110,110,110,110,110,110,109,106,105,105,105,106,106,106,106,106,106,108,110,114,113,93,57,16,0,1,0,0,4,25,22,4,0,0,0,0,0,0,0,1,45,149,186,179,173,165,142,100,46,8,0,0,1,0,0,0,0,0,1,2,10,22,29,28,27,24,22,21,19,19,21,25,30,30,30,30,30,30,30,31,31,32,33,34,35,36,36,32,31,31,32,32,33,33,34,38,40,40,40,40,40,40,41,41,41,41,42,43,44,44,43,41,41,41,41,41,41,41,41,42,42,41,40,40,41,43,43,41,40,40,40,40,40,40,41,42,42,42,42,41,41,41,41,43,44,44,44,43,43,42,42,41,41,43,44,44,43,41,41,42,43,44,45,46,45,45,44,44,46,49,47,36,24,6,1,0,7,52,61,79,87,92,98.00001,107,91,50,74,124,154,163,167,163,151,127,103,76,61,52,46,45,51,66,78,89,97.00001,104,109,181,214,236,246,236,206,156,80,24,4,19,46,83,95,87,65,17,0,0,7,43,56,54,46,32,16,2,0,0,1,2,3,3,2,0,0,0,0,0,0,0,0,0,0,0,0,0,0,0,0,0,0,0,0,0,0
0,0,0,0,0,0,0,0,0,0,0,0,0,0,0,0,0,0,0,0,0,0,0,0,0,0,0,0,0,0,0,5,27,95,157,193,203,208,207,208,212,214,216,219,223,226,228,227,222,217,212,208,208,210,212,212,210,207,205,201,195,191,188,187,187,186,184,181,177,175,175,175,176,177,178,179,180,180,180,181,182,183,183,183,183,183,183,184,187,188,188,189,191,192,192,194,197,200,203,206,210,213,215,217,220,222,224,225,224,225,228,230,231,235,239,244,252,202,63,8,17,24,31,35,42,48,58,66,75,76,71,45,10,2,6,41,99.00001,95,90,61,54,28,3,0,1,17,62,82,91,98.00001,100,100,96.00001,94,93,93,96.00001,98.00001,101,103,104,105,105,105,105,105,105,105,106,107,107,108,109,110,111,110,107,106,107,108,108,109,109,109,107,106,106,107,111,112,114,114,112,112,112,112,113,113,114,115,117,118,119,120,120,120,121,122,122,122,122,123,123,124,124,124,125,126,127,127,127,127,127,127,127,128,129,130,132,133,133,135,138,139,137,135,131,128,125,121,114,107,101,97.00001,97.00001,98.00001,100,100,100,100,102,103,104,103,100,98.00001,99.00001,100,103,104,102,103,105,107,109,110,111,112,113,113,114,115,118,119,119,118,116,115,114,112,108,108,110,112,118,121,123,121,119,118,119,122,125,127,128,127,121,119,117,115,112,87,34,10,14,40,100,120,125,99.00001,23,4,27,59,80,91,90,93,96.00001,97.00001,98.00001,99.00001,100,100,101,102,103,102,99.00001,97.00001,94,93,93,95,98.00001,99.00001,99.00001,99.00001,99.00001,99.00001,99.00001,99.00001,99.00001,99.00001,99.00001,99.00001,99.00001,99.00001,99.00001,99.00001,99.00001,99.00001,98.00001,98.00001,98.00001,98.00001,97.00001,97.00001,97.00001,98.00001,101,101,101,100,99.00001,98.00001,97.00001,98.00001,102,104,104,104,104,104,104,105,107,108,108,108,108,108,108,107,106,105,105,105,105,105,105,105,105,106,109,111,112,109,102,80,35,8,3,0,1,15,76,54,16,0,0,0,0,0,0,0,0,43,151,185,179,172,163,140,99.00001,46,7,0,0,0,0,0,0,0,0,1,2,9,23,30,27,25,23,22,21,19,19,21,25,29,29,29,29,29,29,29,30,31,32,33,34,35,36,35,32,31,31,31,31,31,31,32,36,38,38,38,38,38,38,38,38,39,39,40,42,43,43,42,40,39,39,39,39,39,39,40,42,42,40,38,38,40,42,42,40,39,39,39,39,39,39,40,41,41,41,41,40,39,39,40,42,43,42,41,40,40,41,41,40,41,43,44,44,43,41,40,40,41,42,43,44,45,45,45,44,45,46,46,44,35,15,4,1,4,25,60,81,97.00001,111,119,124,110,67,77,134,160,166,168,164,151,127,103,76,60,51,45,44,50,66,79,91,105,119,145,169,200,233,244,235,204,154,79,24,1,0,21,92,108,99.00001,75,14,0,0,10,44,54,54,47,32,17,3,0,0,0,0,0,0,0,0,0,0,0,0,0,0,0,0,0,0,0,0,0,0,0,0,0,0,0,0,0
0,0,0,0,0,0,0,0,0,0,0,0,0,0,0,0,0,0,0,0,0,0,0,0,0,0,0,0,0,0,0,2,10,47,94,154,189,205,205,207,212,214,216,218,222,225,227,226,222,218,213,209,207,209,211,211,210,207,205,201,195,191,188,187,187,186,184,181,177,175,175,175,176,177,178,179,180,180,180,181,182,183,183,183,183,183,183,184,187,188,188,189,191,192,192,194,197,200,203,206,210,213,215,217,220,222,224,225,224,225,228,230,231,235,239,244,252,202,63,7,15,21,29,34,41,47,58,66,75,74,62,35,8,7,29,69,109,113,85,46,28,7,1,1,2,21,76,91,94,96.00001,97.00001,96.00001,94,93,92,92,94,97.00001,100,102,104,105,105,105,105,105,105,105,105,105,106,106,107,108,108,107,104,103,104,105,107,107,108,107,105,104,105,106,108,110,113,113,111,111,111,111,111,111,112,114,116,117,117,118,119,119,119,120,120,120,121,121,121,122,122,122,124,125,125,125,125,125,126,126,125,125,127,128,131,132,132,133,135,135,134,130,127,124,122,119,112,106,100,97.00001,96.00001,97.00001,99.00001,100,99.00001,99.00001,100,101,102,101,99.00001,97.00001,98.00001,99.00001,102,102,101,102,104,106,107,107,108,108,109,110,111,112,116,116,116,115,114,114,113,111,109,108,110,113,117,120,122,122,120,120,121,123,125,127,128,128,123,120,119,117,114,94,58,22,6,28,92,120,125,100,23,4,24,56,77,88,87,88,92,94,95,98.00001,98.00001,99.00001,100,101,101,100,96.00001,93,91,90,90,91,94,95,95,95,95,95,95,95,95,95,95,95,95,95,95,95,95,95,95,95,96.00001,96.00001,96.00001,96.00001,96.00001,96.00001,98.00001,99.00001,98.00001,98.00001,97.00001,96.00001,96.00001,97.00001,101,103,103,103,103,103,103,104,105,106,106,106,107,107,107,107,105,105,105,105,105,105,105,105,105,107,112,113,110,109,109,99.00001,69,31,8,1,0,32,121,120,34,1,0,0,0,0,0,0,0,40,148,183,175,169,160,138,98.00001,45,8,0,0,0,0,0,1,1,1,1,3,10,24,30,27,24,23,22,22,21,21,23,25,29,29,29,29,29,29,29,30,31,32,33,33,34,35,34,32,31,31,31,31,31,31,31,33,34,34,34,34,34,34,34,35,36,38,39,40,41,42,41,39,38,38,38,38,38,38,39,39,38,35,34,34,35,38,39,39,38,38,38,38,38,38,38,40,40,40,40,38,38,38,39,41,42,43,42,40,40,40,40,41,42,43,44,44,43,42,40,39,39,40,41,42,43,44,44,44,44,45,45,46,40,24,10,2,3,5,30,70,104,130,144,141,135,120,125,152,165,168,169,165,153,128,102,75,59,50,44,43,49,66,77,89,102,107,130,77,108,211,245,236,205,154,78,25,0,0,25,107,113,93,64,14,1,4,22,48,56,52,47,39,25,6,1,0,0,0,0,0,0,0,0,0,0,0,0,0,0,0,0,0,0,0,0,0,0,0,0,0,0,0,0
0,0,0,0,0,0,0,0,0,0,0,0,0,0,0,0,0,0,0,0,0,0,0,0,0,0,0,0,0,0,0,1,3,20,60,120,176,204,204,206,211,213,214,217,221,224,226,225,223,219,214,209,207,208,210,210,210,207,205,201,195,191,188,187,187,186,184,181,177,175,175,175,176,177,178,179,180,180,180,181,182,183,183,183,183,183,183,184,187,188,188,189,191,192,192,194,197,200,203,206,210,213,215,217,220,222,224,225,224,225,228,230,231,235,239,244,252,202,63,7,15,20,28,33,41,49,59,67,76,73,57,30,7,12,41,81,102,102,68,27,8,1,1,4,16,38,78,93,94,94,95,94,93,91,90,91,93,96.00001,99.00001,101,103,104,104,104,104,104,104,103,103,103,103,103,104,104,104,104,101,101,102,103,105,106,106,105,103,103,104,106,107,109,113,113,111,110,110,111,111,111,112,113,115,116,116,116,117,118,118,118,118,118,119,120,120,120,120,120,122,123,123,123,123,124,125,125,124,124,125,126,129,130,130,131,131,130,129,128,125,123,121,118,112,104,99.00001,95,94,96.00001,98.00001,99.00001,99.00001,98.00001,98.00001,98.00001,99.00001,99.00001,98.00001,97.00001,99.00001,100,102,102,100,100,102,104,105,105,106,106,107,108,109,111,113,114,113,113,113,113,112,111,109,109,110,112,116,118,120,120,118,118,119,121,123,125,125,125,121,119,117,115,112,98.00001,73,36,8,19,84,115,123,101,23,4,23,54,75,86,84,85,87,89,93,94,96.00001,97.00001,98.00001,98.00001,98.00001,97.00001,94,91,89,88,88,89,91,92,92,92,92,92,92,92,92,92,92,92,92,92,92,92,92,92,92,93,94,95,95,96.00001,96.00001,96.00001,96.00001,97.00001,97.00001,96.00001,96.00001,96.00001,96.00001,97.00001,101,102,102,102,102,102,102,102,102,103,103,104,105,106,106,106,105,105,105,105,105,105,105,105,105,108,112,112,107,106,109,97.00001,85,43,12,1,0,39,139,141,62,14,3,0,0,0,0,0,1,32,128,165,166,165,158,138,102,50,9,0,0,0,0,0,1,1,1,2,4,12,25,30,24,23,22,20,22,22,23,24,27,28,28,28,28,28,28,29,30,31,32,32,32,32,33,32,30,29,29,29,29,29,29,29,30,30,30,30,30,30,30,31,32,33,34,35,36,38,38,38,35,35,35,35,35,35,35,35,35,34,32,31,31,32,34,35,35,35,35,35,35,35,35,35,39,39,39,39,38,36,36,39,41,43,43,43,41,40,40,40,41,42,43,44,44,43,42,40,38,38,39,40,41,42,43,44,44,43,43,43,45,41,27,14,2,2,5,41,120,153,167,170,165,157,157,160,169,173,172,171,167,155,128,102,74,58,49,44,42,45,56,63,71,69,113,78,36,71,200,246,237,204,152,76,24,1,1,30,112,129,112,80,15,2,9,29,51,57,51,45,36,24,6,1,0,0,0,0,0,0,0,0,0,0,0,0,0,0,0,0,0,0,0,0,0,0,0,0,0,0,0,0
0,0,0,0,0,0,0,0,0,0,0,0,0,0,0,0,0,0,0,0,0,0,0,0,0,0,0,0,0,0,0,0,0,4,14,65,165,204,205,206,209,211,213,216,220,223,225,225,223,220,214,209,206,207,209,210,209,207,205,201,195,191,188,187,187,186,184,181,177,175,175,175,176,177,178,179,180,180,180,181,182,183,183,183,183,183,183,184,187,188,188,189,191,192,192,194,197,200,203,206,210,213,215,217,220,222,224,225,224,225,228,230,231,235,239,244,252,202,63,7,15,21,29,35,43,50,61,70,78,73,56,29,5,9,39,73,82,69,28,4,1,0,2,21,56,74,85,91,89,90,93,92,90,88,87,87,91,93,97.00001,99.00001,100,100,100,100,100,100,100,100,99.00001,99.00001,99.00001,98.00001,98.00001,98.00001,98.00001,98.00001,99.00001,100,100,101,102,103,104,104,102,102,104,105,107,108,110,111,109,109,110,110,110,111,111,112,113,114,114,114,114,114,115,116,117,117,117,118,119,119,119,119,119,120,121,121,121,121,121,121,121,122,123,124,126,127,127,127,127,127,127,126,123,122,120,117,110,105,98.00001,95,95,96.00001,98.00001,99.00001,98.00001,97.00001,95,95,96.00001,97.00001,97.00001,97.00001,99.00001,100,102,101,98.00001,98.00001,99.00001,100,101,102,103,104,105,106,107,108,110,110,111,111,111,111,112,111,108,108,109,111,114,116,116,116,116,116,116,117,118,119,119,118,114,112,111,110,107,99.00001,85,62,15,17,58,96.00001,119,102,24,4,23,54,74,84,81,81,83,85,90,92,93,94,96.00001,96.00001,96.00001,95,91,89,87,86,86,87,89,90,91,91,91,91,91,91,91,91,91,91,91,91,91,91,91,91,91,92,93,94,96.00001,97.00001,98.00001,97.00001,96.00001,96.00001,96.00001,96.00001,96.00001,97.00001,97.00001,97.00001,100,101,101,101,101,101,101,100,98.00001,97.00001,98.00001,100,101,103,104,104,105,105,105,105,105,105,105,105,107,108,108,107,106,106,106,97.00001,79,41,12,0,1,35,111,146,100,48,13,0,0,0,0,0,0,19,78,128,152,161,155,140,112,61,13,0,0,0,0,1,1,1,1,2,4,10,24,28,22,20,19,20,20,22,23,24,24,24,24,24,24,24,24,24,29,30,30,30,29,29,29,29,29,29,29,29,29,29,29,29,31,31,31,31,31,31,31,31,31,32,33,34,35,35,36,36,35,35,35,35,35,35,35,34,32,30,29,28,28,29,30,32,33,34,34,34,34,34,34,35,39,39,38,38,38,36,36,39,42,43,44,43,42,41,41,41,40,41,43,44,44,43,41,39,38,38,39,40,41,42,43,44,44,43,40,40,41,36,24,13,4,7,27,75,171,211,214,207,196,188,183,188,190,184,180,176,170,156,128,101,73,58,50,44,44,38,29,25,22,28,44,43,24,66,200,246,236,202,147,71,22,1,7,40,93,92,105,58,15,3,14,36,56,59,48,39,25,15,4,1,0,0,0,0,0,0,0,0,0,0,0,0,0,0,0,0,0,0,0,0,0,0,0,0,0,0,0,0
0,0,0,0,0,0,0,0,0,0,0,0,0,0,0,0,0,0,0,0,0,0,0,0,0,0,0,0,0,0,0,0,0,0,4,54,161,205,206,207,209,210,212,215,219,222,224,225,224,221,215,209,206,206,208,209,209,207,205,201,195,191,188,187,187,186,184,181,177,175,175,175,176,177,178,179,180,180,180,181,182,183,183,183,183,183,183,184,187,188,188,189,191,192,192,194,197,200,203,206,210,213,215,217,220,222,224,225,224,225,228,230,231,235,239,244,252,202,63,7,15,22,30,38,45,54,64,73,79,72,46,19,4,9,59,50,48,32,7,1,2,6,17,46,73,86,87,88,87,88,91,91,88,86,85,86,89,92,95,97.00001,98.00001,98.00001,98.00001,98.00001,98.00001,98.00001,98.00001,98.00001,97.00001,96.00001,96.00001,95,94,93,93,95,97.00001,98.00001,99.00001,99.00001,100,101,102,101,100,100,102,105,106,108,109,109,109,109,109,110,110,110,110,111,112,112,112,112,112,113,114,114,114,115,116,116,117,117,117,118,118,118,119,120,120,120,120,120,120,120,121,123,125,125,125,126,126,126,126,125,123,121,121,118,110,104,98.00001,95,93,96.00001,98.00001,98.00001,97.00001,96.00001,94,93,94,95,96.00001,97.00001,99.00001,100,101,100,97.00001,96.00001,97.00001,98.00001,99.00001,100,101,102,103,104,105,106,106,107,108,109,109,110,111,110,106,106,107,108,111,112,112,112,111,110,110,111,112,112,112,111,107,106,106,105,102,97.00001,88,69,25,20,48,87,115,101,24,4,23,51,74,83,80,80,81,83,88,91,91,92,93,94,94,94,91,89,87,86,86,87,89,90,91,91,91,91,91,91,91,91,91,91,91,91,91,91,91,91,90,91,92,94,96.00001,98.00001,99.00001,98.00001,96.00001,95,95,96.00001,97.00001,97.00001,97.00001,98.00001,100,100,100,100,100,100,100,99.00001,95,94,96.00001,97.00001,100,101,102,103,104,105,105,105,103,103,103,104,106,106,105,104,105,106,106,96.00001,77,40,12,0,0,32,122,145,127,73,20,0,0,0,0,0,0,13,61,112,143,158,155,141,114,79,16,0,0,0,0,1,1,1,1,1,3,9,23,25,17,16,16,17,19,20,22,23,22,22,22,22,22,22,22,23,24,25,27,27,24,24,23,24,25,27,27,27,27,27,27,27,28,28,28,28,28,28,28,28,28,29,30,30,31,32,32,33,33,33,33,33,33,33,33,31,28,25,24,24,24,24,25,28,30,31,31,31,31,31,31,32,35,36,35,35,35,35,35,36,41,42,42,42,41,40,40,39,38,38,40,41,41,40,38,35,35,35,36,38,39,40,41,41,41,39,36,35,38,33,21,9,2,7,32,104,162,195,195,198,199,194,183,180,183,184,185,183,175,159,129,101,71,54,48,43,44,34,15,8,10,17,29,28,20,67,200,246,235,201,145,69,22,4,20,61,84,76,90,49,12,4,12,27,57,61,48,35,20,8,3,1,0,0,0,0,0,0,0,0,0,0,0,0,0,0,0,0,0,0,0,0,0,0,0,0,0,0,0,0
0,0,0,0,0,0,0,0,0,0,0,0,0,0,0,0,0,0,0,0,0,0,0,0,0,0,0,0,0,0,0,0,0,2,14,63,166,206,206,207,209,210,211,214,219,222,224,225,225,222,216,210,206,206,207,208,209,207,205,201,195,191,188,187,187,186,184,181,177,175,175,175,176,177,178,179,180,180,180,181,182,183,183,183,183,183,183,184,187,188,188,189,191,192,192,194,197,200,203,206,210,213,215,217,220,222,224,225,224,225,228,230,231,235,239,244,252,202,63,8,16,23,32,40,48,57,69,77,82,71,27,4,1,9,54,46,39,19,2,3,16,31,44,65,79,85,85,85,86,87,89,89,87,85,84,85,88,91,94,96.00001,96.00001,96.00001,96.00001,96.00001,96.00001,96.00001,96.00001,96.00001,96.00001,95,94,93,91,90,90,92,95,96.00001,97.00001,98.00001,98.00001,99.00001,100,100,98.00001,99.00001,101,104,106,107,108,108,107,107,108,108,109,109,109,109,110,110,111,111,111,112,112,112,113,114,115,115,115,115,115,116,116,117,117,117,117,118,119,119,118,118,120,122,124,124,124,125,126,124,124,123,122,122,122,119,110,104,98.00001,95,93,94,97.00001,97.00001,97.00001,96.00001,93,91,92,93,95,96.00001,98.00001,99.00001,100,99.00001,96.00001,95,96.00001,97.00001,97.00001,98.00001,98.00001,99.00001,101,102,102,102,102,102,104,105,106,107,108,106,103,102,104,104,105,106,106,106,106,105,105,105,106,105,104,102,98.00001,98.00001,100,99.00001,95,91,86,70,39,25,45,83,113,99.00001,23,4,23,54,75,83,80,80,81,83,86,88,88,89,90,91,92,92,91,90,88,87,87,88,90,91,92,92,92,92,92,92,92,92,92,92,92,92,92,92,92,92,90,90,91,93,96.00001,98.00001,99.00001,98.00001,95,94,95,96.00001,97.00001,97.00001,98.00001,98.00001,99.00001,99.00001,99.00001,99.00001,99.00001,99.00001,99.00001,97.00001,93,92,93,95,98.00001,100,101,102,104,105,105,105,103,103,103,103,103,103,103,104,107,108,108,97.00001,77,39,12,0,1,28,109,139,149,120,31,0,0,0,0,0,0,15,63,113,144,159,156,139,107,57,17,0,0,0,0,1,0,0,0,1,2,7,20,24,15,13,14,15,16,17,20,21,21,21,21,21,21,21,21,21,22,22,21,20,19,17,16,19,23,25,25,25,25,25,25,25,27,27,27,27,27,27,27,27,27,27,28,28,29,30,31,31,31,31,31,31,31,31,31,30,25,23,22,21,21,22,23,25,29,30,30,30,30,30,30,31,33,34,35,35,34,34,34,36,41,42,41,41,41,40,39,38,34,34,36,38,38,36,34,33,33,34,34,35,36,38,39,39,36,35,34,34,36,32,19,7,0,3,23,41,63,81,98.00001,147,173,174,147,142,165,174,191,194,184,165,133,102,69,50,43,40,44,33,8,6,23,34,40,36,29,74,201,245,233,199,145,70,21,3,23,43,81,65,56,34,7,3,6,38,58,62,49,34,17,6,3,1,0,0,0,0,0,0,0,0,0,0,0,0,0,0,0,0,0,0,0,0,0,0,0,0,0,0,0,0
0,0,0,0,0,0,0,0,0,0,0,0,0,0,0,0,0,0,0,0,0,0,0,0,0,0,0,0,0,0,0,0,1,8,27,96.00001,170,206,206,206,208,209,210,213,218,221,223,224,224,222,217,212,208,207,207,207,208,206,205,201,195,191,188,186,186,185,183,181,176,175,175,175,176,176,177,178,179,180,180,181,182,182,182,182,182,182,182,183,187,188,188,189,191,192,192,194,197,199,202,205,209,212,214,216,219,221,223,224,223,224,228,230,231,235,239,237,232,182,56,7,16,24,34,42,51,60,71,77,77,59,16,1,2,12,44,40,13,5,9,17,50,64,67,76,81,84,83,84,85,86,87,87,85,84,83,84,87,89,92,93,93,93,93,93,93,93,93,93,93,93,92,91,89,89,89,90,93,94,96.00001,96.00001,96.00001,97.00001,98.00001,98.00001,98.00001,98.00001,100,103,105,106,105,105,106,106,106,106,107,108,108,109,108,109,109,110,109,109,109,110,111,112,112,112,112,112,112,114,114,115,116,117,118,119,119,119,119,119,120,121,123,123,123,123,123,121,121,121,122,123,123,119,113,105,98.00001,94,91,92,94,95,96.00001,95,93,91,91,92,93,94,96.00001,97.00001,98.00001,97.00001,95,94,95,95,94,94,94,95,97.00001,98.00001,98.00001,97.00001,98.00001,98.00001,99.00001,100,102,103,103,102,99.00001,98.00001,100,100,101,102,102,101,100,99.00001,99.00001,99.00001,99.00001,99.00001,98.00001,96.00001,92,92,94,94,90,87,85,72,46,32,46,83,112,99.00001,22,3,24,52,74,83,81,81,82,84,86,87,87,87,88,89,90,91,91,90,88,87,87,88,90,91,92,93,93,94,94,94,94,94,93,92,92,92,92,92,92,92,90,90,90,92,94,96.00001,97.00001,96.00001,94,93,94,94,95,96.00001,97.00001,97.00001,97.00001,97.00001,97.00001,97.00001,98.00001,98.00001,99.00001,98.00001,93,92,93,94,96.00001,97.00001,98.00001,99.00001,102,103,103,102,101,101,100,100,99.00001,100,101,103,106,108,108,96.00001,75,36,10,0,1,20,71,107,160,133,42,3,1,0,0,0,3,30,78,125,148,159,157,141,111,59,16,0,0,0,0,0,0,0,0,0,1,5,17,22,13,10,12,13,14,16,19,20,20,20,20,20,20,20,20,20,19,19,19,19,16,15,15,16,21,23,23,23,23,23,23,23,25,25,25,25,25,25,25,25,25,25,25,27,28,29,30,30,30,30,30,30,30,30,30,29,24,23,22,21,21,22,23,24,27,28,29,29,29,29,30,30,32,32,33,33,33,33,33,34,38,40,39,39,39,39,38,36,33,33,34,35,35,34,33,32,32,33,33,33,34,35,36,36,34,33,33,33,34,29,15,5,1,2,19,24,23,30,48,72,99.00001,130,78,77,90,141,169,177,167,149,122,95,65,47,40,39,45,34,6,4,32,46,47,43,33,75,200,243,231,197,144,70,20,4,23,56,72,60,65,30,6,1,4,21,54,60,46,31,16,6,2,1,0,0,0,0,0,0,0,0,0,0,0,0,0,0,0,0,0,0,0,0,0,0,0,0,0,0,0,0
0,0,0,0,0,0,0,0,0,0,0,0,0,0,0,0,0,0,0,0,0,0,0,0,0,0,0,0,0,0,0,0,0,9,38,86,174,207,205,205,206,207,208,210,214,216,218,219,221,220,217,215,213,210,207,206,205,205,204,202,196,192,188,186,184,183,182,180,176,175,175,175,175,175,176,177,178,179,180,181,181,181,181,181,181,181,181,182,186,188,188,189,191,192,192,194,198,200,203,205,209,211,212,215,217,219,221,222,222,224,227,230,232,236,239,224,192,113,42,8,16,24,36,46,54,64,73,73,62,35,8,2,7,12,12,6,2,3,24,54,70,78,77,78,79,80,81,83,85,85,85,84,83,82,83,84,85,86,87,88,89,89,89,89,89,89,89,89,89,89,89,88,88,87,87,88,90,91,92,94,94,94,96.00001,97.00001,98.00001,99.00001,99.00001,100,102,103,102,103,105,106,105,105,105,106,109,110,108,107,108,107,107,106,106,107,110,111,111,111,112,113,113,112,112,113,116,119,121,122,122,122,122,123,122,121,120,120,121,120,117,116,117,119,121,123,123,120,115,109,99.00001,93,89,86,89,91,94,95,93,92,92,92,91,91,92,92,93,92,92,91,92,91,89,88,88,88,89,89,89,89,90,90,91,92,94,94,94,94,96.00001,96.00001,98.00001,99.00001,99.00001,99.00001,97.00001,96.00001,93,92,92,92,92,92,91,90,85,85,86,87,88,87,86,75,49,38,50,85,112,99.00001,22,3,23,49,70,81,82,83,85,86,86,86,86,86,86,87,88,89,89,88,88,87,87,88,88,89,91,92,94,95,97.00001,97.00001,96.00001,95,92,91,91,91,91,91,91,91,89,89,89,90,91,91,92,91,92,91,92,92,92,92,93,93,92,93,94,95,96.00001,98.00001,99.00001,99.00001,96.00001,94,93,93,93,93,92,94,97.00001,98.00001,97.00001,97.00001,96.00001,95,94,94,94,96.00001,98.00001,101,104,106,106,94,68,36,9,1,1,19,60,118,152,137,59,20,5,1,0,2,19,57,120,148,156,159,158,145,117,67,20,0,0,0,0,0,0,0,0,0,0,4,14,17,10,7,8,9,10,13,16,17,19,19,19,19,19,19,19,19,19,20,21,22,21,20,17,17,19,20,20,20,20,20,20,21,23,24,24,24,24,24,24,24,24,24,24,25,28,29,29,29,28,28,28,28,28,28,28,27,24,24,24,24,24,24,24,24,24,24,25,27,28,29,29,30,30,30,30,31,31,31,31,32,33,34,34,35,35,35,35,35,35,34,35,35,35,35,34,33,32,31,31,32,33,34,35,35,34,33,32,31,30,23,10,3,1,3,19,22,17,16,20,27,39,36,20,16,27,52,115,129,119,112,94,81,57,46,40,39,47,35,6,4,31,45,50,47,32,72,198,241,229,196,142,69,21,2,9,28,68,60,63,28,6,1,2,16,48,52,38,24,13,5,1,0,0,0,0,0,0,0,0,0,0,0,0,0,0,0,0,0,0,0,0,0,0,0,0,0,0,0,0,0
0,0,0,0,0,0,0,0,0,0,0,0,0,0,0,0,0,0,0,0,0,0,0,0,0,0,0,0,0,0,0,0,1,14,49,118,177,206,204,204,206,206,207,209,212,214,216,217,219,219,218,217,215,212,208,206,204,204,204,202,197,193,189,186,183,182,181,179,176,175,175,175,173,173,176,177,178,179,180,180,180,180,180,180,180,180,180,182,186,188,188,189,191,192,192,194,198,200,202,205,208,210,211,214,216,218,220,221,221,223,227,230,232,236,239,217,173,94,35,8,17,27,38,47,57,65,74,71,54,25,4,2,12,23,2,0,0,10,51,71,81,84,81,79,78,78,80,82,84,84,83,82,81,81,82,83,84,85,85,85,86,87,87,87,87,87,87,87,87,87,87,87,87,87,87,87,88,89,90,91,91,92,92,95,97.00001,98.00001,98.00001,98.00001,100,100,101,101,103,104,103,103,103,104,107,108,106,106,107,106,105,105,105,106,109,109,109,110,111,111,111,111,111,112,116,120,122,123,123,123,124,124,123,121,119,118,118,117,114,114,115,118,121,122,123,121,117,110,99.00001,92,85,84,86,89,94,95,94,93,93,92,90,89,90,90,90,90,90,90,90,89,85,84,84,84,84,84,84,84,86,86,88,89,90,90,90,91,91,93,95,96.00001,96.00001,95,93,91,89,88,88,88,88,88,88,86,82,81,82,83,84,85,85,74,51,40,51,86,112,98.00001,23,3,23,48,68,78,81,84,86,86,85,85,85,85,85,85,86,87,87,87,87,87,87,87,87,87,88,89,92,94,95,95,94,92,90,89,89,89,89,89,89,89,89,89,89,89,89,89,89,89,90,90,90,90,90,90,90,90,90,91,92,93,95,97.00001,99.00001,98.00001,96.00001,94,93,92,91,90,90,91,94,95,94,93,91,90,89,89,92,94,97.00001,99.00001,101,102,102,90,67,30,6,0,1,9,43,101,146,147,95,43,13,0,0,8,49,107,143,158,159,158,158,148,130,92,27,1,0,0,0,0,0,0,0,0,0,2,13,16,9,7,7,8,9,12,14,15,16,16,16,16,16,16,16,16,17,19,21,22,22,21,19,17,17,17,17,17,17,17,17,19,22,23,23,23,23,23,23,23,23,23,23,24,27,28,28,28,27,25,25,25,25,25,25,25,24,25,25,25,25,25,25,24,23,22,24,24,25,27,28,28,28,28,28,29,30,30,30,30,30,31,32,32,32,33,34,34,34,34,34,34,34,34,34,33,31,30,30,31,32,33,34,34,33,32,31,30,28,22,9,3,1,3,17,20,14,9,6,4,4,2,0,0,0,12,49,62,54,56,58,62,52,47,41,40,47,36,6,3,22,35,43,45,38,83,203,239,227,194,144,71,22,1,3,15,54,42,32,20,4,1,4,19,45,48,33,22,13,5,1,0,0,0,0,0,0,0,0,0,0,1,1,0,0,0,0,0,0,0,0,0,0,0,0,0,0,0,0,0
0,0,0,0,0,0,0,0,0,0,0,0,0,0,0,0,0,0,0,0,0,0,0,0,0,0,0,0,0,0,0,0,0,21,59,126,177,202,203,204,206,206,206,208,210,213,214,215,218,219,218,217,215,212,208,206,204,204,204,202,199,194,191,188,185,183,181,179,177,175,175,175,173,173,176,177,178,179,180,180,180,180,180,180,180,180,180,182,186,188,188,189,191,192,192,194,198,200,202,205,208,210,211,214,216,218,220,221,221,223,227,230,231,235,238,217,174,96.00001,38,12,21,30,40,48,57,66,76,73,54,23,3,1,13,24,3,1,5,20,58,75,79,80,78,77,76,77,79,81,83,83,82,81,80,80,81,82,83,84,84,84,85,86,86,86,86,86,86,86,86,86,86,86,86,86,86,86,86,87,88,89,90,90,91,92,94,94,94,95,97.00001,98.00001,99.00001,99.00001,100,100,99.00001,99.00001,99.00001,101,102,103,105,106,106,106,105,105,105,105,108,108,108,109,109,109,110,111,111,113,117,119,121,122,122,123,124,124,122,120,117,115,114,114,114,114,116,118,120,122,123,122,118,111,100,92,85,83,86,89,95,96.00001,95,94,93,92,91,90,87,86,86,86,86,86,86,85,83,82,82,82,82,82,82,83,83,84,85,86,87,88,88,88,90,90,92,92,92,92,90,89,87,85,85,84,84,84,84,83,80,79,79,80,83,84,84,74,51,40,51,85,111,98.00001,24,4,24,46,66,76,80,83,85,85,84,84,84,84,84,84,84,85,85,86,86,86,86,86,86,86,85,86,89,91,91,91,90,89,87,86,86,86,86,86,86,86,86,86,86,86,86,86,86,86,88,88,88,88,88,88,88,88,89,90,91,92,93,95,96.00001,96.00001,94,93,93,92,91,91,90,91,92,92,91,90,87,86,85,86,90,92,95,97.00001,99.00001,100,99.00001,87,63,27,4,0,0,2,15,56,141,156,125,86,20,0,0,23,102,141,154,160,157,155,155,149,137,102,41,7,0,0,0,0,0,0,0,0,0,2,13,16,9,7,7,7,9,10,12,13,14,14,14,14,14,14,14,14,15,17,20,21,21,20,17,16,16,16,16,16,16,16,16,17,21,22,22,22,22,22,22,22,22,22,22,23,25,27,27,27,25,24,24,24,24,24,24,25,24,25,25,25,25,25,25,24,22,21,22,23,23,24,25,25,25,25,27,27,28,28,28,28,29,30,30,30,31,32,32,32,32,32,32,32,32,32,32,31,29,28,29,30,31,32,33,33,32,31,31,30,28,22,10,4,1,2,16,20,13,9,8,7,5,4,1,1,0,1,4,9,8,13,27,45,50,49,42,41,48,38,6,1,7,19,28,39,52,97.00001,203,238,227,197,148,75,23,1,1,4,9,10,5,4,1,2,13,28,43,45,34,24,14,5,1,0,0,0,0,0,0,0,0,0,0,1,1,0,0,0,0,0,0,0,0,0,0,0,0,0,0,0,0,0
0,0,0,0,0,0,0,0,0,0,0,0,0,0,0,0,0,0,0,0,0,0,0,0,0,0,0,0,0,0,0,0,0,12,51,112,156,185,197,205,206,206,206,207,208,211,212,214,218,219,218,217,215,212,208,205,204,204,204,203,200,197,193,189,186,183,181,179,177,176,175,175,173,173,175,177,178,179,180,180,180,180,180,180,180,180,180,182,186,188,188,189,191,192,192,194,198,200,202,205,208,210,211,214,216,218,220,221,221,223,227,230,231,235,239,215,164,86,35,14,22,30,40,49,58,67,78,72,48,16,1,1,7,9,3,3,14,41,65,77,77,76,74,74,74,75,78,79,82,82,81,80,78,78,79,80,81,82,82,83,84,84,84,84,84,84,84,84,84,84,84,84,84,84,84,84,85,85,86,87,88,89,89,90,91,92,92,93,96.00001,97.00001,99.00001,99.00001,98.00001,98.00001,97.00001,96.00001,97.00001,98.00001,100,101,103,104,105,105,105,105,105,105,107,107,107,107,107,108,109,109,111,113,116,118,119,120,120,121,122,121,119,117,115,113,112,112,114,115,115,116,118,120,123,122,119,113,101,93,85,83,85,89,94,96.00001,94,94,93,92,90,89,85,84,84,84,84,84,84,83,82,81,81,81,81,81,81,81,82,83,84,85,86,87,87,87,88,89,89,90,90,89,89,88,87,86,84,83,83,83,82,81,78,77,77,78,81,82,82,72,50,36,40,74,107,97.00001,23,4,22,44,64,74,78,81,83,84,83,83,83,83,83,83,83,83,84,84,84,84,84,84,84,84,83,84,87,88,88,87,85,85,84,84,84,84,84,84,84,84,84,84,84,84,84,84,84,84,85,85,85,85,85,85,85,86,87,88,89,90,91,92,93,93,92,91,91,91,90,90,90,90,89,89,88,87,85,84,83,84,88,91,93,95,96.00001,97.00001,96.00001,82,54,20,3,0,0,0,1,44,140,159,142,90,30,3,4,39,123,158,158,158,155,154,153,149,139,115,68,20,2,0,0,0,0,0,0,0,0,2,13,16,10,7,7,7,7,8,9,10,12,12,12,12,12,12,12,13,14,16,19,20,20,19,16,15,15,15,15,15,15,15,15,16,20,21,21,21,21,21,21,21,21,21,21,22,24,25,25,25,24,23,23,23,23,23,23,24,24,24,24,24,24,24,24,23,21,21,21,21,21,22,22,22,23,24,24,25,25,25,25,27,27,28,28,29,30,30,30,30,30,30,30,30,30,30,30,30,28,27,28,29,30,31,33,33,31,31,31,30,29,23,12,5,1,2,15,17,10,7,6,4,3,2,1,1,1,0,0,0,0,0,13,40,47,49,42,40,47,38,12,2,4,5,15,33,60,132,202,236,229,198,142,67,20,0,0,0,2,0,0,0,0,4,20,33,42,44,36,28,15,5,1,0,0,0,0,0,0,0,0,0,0,1,1,0,0,0,0,0,0,0,0,0,0,0,0,0,0,0,0,0
0,0,0,0,0,0,0,0,0,0,0,0,0,0,0,0,0,0,0,0,0,0,0,0,0,0,0,0,0,0,0,0,0,2,15,46,90,150,189,208,206,206,206,206,207,209,210,212,217,219,218,217,215,212,208,205,203,203,204,203,202,199,195,191,186,183,181,179,177,176,175,175,173,173,175,176,178,179,180,180,180,180,180,180,180,180,180,182,186,188,188,189,191,192,192,194,198,200,202,205,208,210,211,214,216,218,220,221,221,223,227,230,231,236,242,211,144,66,31,16,22,30,41,49,61,69,78,67,28,4,1,0,1,1,1,2,15,38,66,76,74,72,70,69,71,72,75,77,78,78,77,76,75,75,75,76,77,78,79,79,82,82,82,82,82,82,82,82,82,82,82,82,82,82,82,83,83,84,84,85,86,87,88,88,87,88,89,92,94,96.00001,98.00001,98.00001,97.00001,96.00001,94,94,94,95,97.00001,99.00001,100,100,101,101,103,103,103,103,104,104,104,104,105,105,106,106,107,109,112,115,116,116,114,114,115,115,114,113,112,111,110,111,116,116,114,114,115,117,120,121,120,115,103,95,86,83,84,86,91,92,91,91,90,89,87,85,83,82,82,82,82,82,82,82,81,81,81,81,81,81,81,81,81,82,83,84,85,86,86,86,88,88,88,88,88,88,88,88,88,88,86,85,84,81,80,79,77,76,76,77,78,79,80,70,47,28,19,40,100,96.00001,21,2,19,41,61,71,75,78,80,81,82,82,82,82,82,82,82,82,81,81,81,81,81,81,81,81,82,82,84,84,84,82,80,80,81,82,82,82,82,82,82,82,81,81,81,81,81,81,81,81,82,82,82,82,82,82,82,83,85,86,86,87,88,89,89,89,87,87,87,87,88,88,88,87,86,85,84,84,83,82,81,82,85,87,90,91,93,92,91,76,35,13,2,0,0,0,0,38,136,167,152,120,48,19,31,61,130,156,155,154,152,152,150,146,139,116,80,36,5,0,0,1,0,0,0,0,0,2,13,16,10,8,7,6,6,6,7,8,8,8,8,8,8,8,8,9,13,15,17,19,19,17,15,14,12,12,12,12,12,12,12,13,17,19,19,19,19,19,19,19,19,19,19,20,22,23,23,22,21,21,21,21,21,21,21,21,22,23,23,23,23,23,23,22,21,20,20,19,19,19,19,19,21,22,22,23,23,23,24,24,25,25,27,27,28,28,29,29,29,29,29,29,29,29,29,29,27,27,28,29,30,31,33,33,31,31,31,31,30,25,16,7,2,3,10,14,9,5,2,1,0,0,0,1,0,0,0,0,0,2,16,36,45,47,41,38,41,36,27,20,6,2,5,21,61,138,204,234,235,198,126,48,12,0,0,0,0,0,0,0,0,4,23,35,42,42,41,33,16,4,0,0,0,0,0,0,0,0,0,0,0,1,1,0,0,0,0,0,0,0,0,0,0,0,0,0,0,0,0,0
0,0,0,0,0,0,0,0,0,0,0,0,0,0,0,0,0,0,0,0,0,0,0,0,0,0,0,0,0,0,0,0,0,0,1,15,50,124,178,208,206,206,206,206,206,206,208,211,216,219,218,217,215,212,208,205,203,202,204,204,203,201,198,192,187,183,182,179,177,176,175,175,173,173,175,176,177,179,180,180,180,180,180,180,180,180,180,182,186,188,188,189,191,192,192,194,198,200,202,205,208,210,211,214,216,218,220,221,221,223,227,230,231,237,245,206,101,41,23,16,22,30,42,51,61,68,73,60,19,1,0,0,0,0,0,1,9,31,63,73,72,70,68,67,69,70,74,76,77,77,76,75,74,73,73,74,75,76,77,78,79,79,81,81,81,81,81,81,81,81,81,81,81,81,81,81,82,82,83,83,84,85,86,86,84,85,87,89,93,95,97.00001,97.00001,95,93,92,92,92,93,95,96.00001,97.00001,98.00001,98.00001,99.00001,101,102,102,102,102,102,102,102,103,104,104,104,105,107,110,111,112,112,110,109,110,110,110,110,110,110,109,111,114,114,112,111,112,114,117,120,121,116,104,95,87,83,83,85,89,90,89,88,88,87,85,83,81,81,81,81,81,81,81,81,81,82,82,82,82,82,82,81,81,81,82,83,84,84,85,86,88,88,87,86,86,87,88,89,90,90,87,85,83,80,79,77,74,73,73,74,75,76,77,69,51,29,7,28,95,95,21,2,17,39,59,69,74,76,78,79,79,79,81,81,81,81,81,80,79,78,78,78,78,78,78,79,79,80,81,81,80,78,76,76,78,79,79,79,79,79,79,79,79,79,79,79,79,79,79,79,80,80,80,80,80,80,80,81,84,85,85,85,86,86,86,86,84,83,83,84,85,86,86,86,84,84,84,83,82,81,80,81,83,86,88,89,89,88,87,70,27,4,1,0,0,0,0,31,123,151,151,122,63,30,45,97.00001,137,157,153,151,151,150,149,145,138,117,85,41,8,0,1,1,0,0,0,0,0,2,13,16,12,8,7,6,5,5,6,6,6,6,6,6,6,6,6,7,10,14,16,17,17,16,14,12,10,10,10,10,10,10,10,12,16,17,17,17,17,17,17,17,17,17,17,19,21,22,22,21,20,20,20,20,20,20,20,20,21,21,21,21,21,21,21,21,20,19,17,17,16,16,15,15,17,19,20,20,20,20,21,22,22,22,23,24,24,24,25,27,27,27,27,27,27,27,27,25,24,25,27,28,29,30,30,30,29,28,29,29,29,25,16,7,2,2,10,13,8,7,7,12,20,15,4,1,0,0,0,0,0,3,15,34,42,43,36,34,36,38,41,38,22,7,3,20,64,113,197,226,228,187,79,21,4,0,0,0,0,0,1,1,0,3,20,32,39,43,45,36,17,4,0,0,0,0,0,0,0,0,0,0,0,1,1,0,0,0,0,0,0,0,0,0,0,0,0,0,0,0,0,0
0,0,0,0,0,0,0,0,0,0,0,0,0,0,0,0,0,0,0,0,0,0,0,0,0,0,0,0,0,0,0,0,0,0,0,2,12,63,166,208,206,206,206,206,205,205,207,210,215,219,218,217,215,212,208,205,203,203,205,205,204,202,200,195,187,183,182,181,177,176,176,176,173,173,175,176,177,178,180,180,180,180,180,180,180,180,180,182,186,188,188,189,191,192,192,194,198,200,202,205,208,210,211,214,216,218,220,221,221,223,227,230,233,239,248,202,70,13,15,19,23,32,46,54,61,64,66,50,13,0,0,0,0,0,0,1,1,17,56,71,70,69,68,67,68,69,73,75,76,76,74,72,71,71,71,71,74,75,76,77,78,78,78,78,80,80,80,80,80,80,80,80,80,80,80,80,80,80,81,82,82,83,84,83,81,82,84,87,92,94,95,95,92,90,89,89,89,90,92,93,94,94,94,96.00001,98.00001,99.00001,100,100,101,101,101,101,101,102,103,103,103,104,106,107,108,108,106,105,105,105,106,107,109,109,109,110,112,111,108,106,108,110,114,117,121,117,104,95,86,82,83,85,87,88,86,84,84,83,82,81,80,80,80,80,80,80,80,80,82,83,83,83,83,83,83,82,79,79,79,79,80,81,82,84,88,88,85,84,84,85,88,90,93,92,89,87,85,82,80,78,74,72,72,73,74,75,76,72,63,41,9,25,95,96.00001,23,3,17,38,58,68,73,75,77,78,78,78,78,78,80,80,80,79,76,75,75,75,75,75,75,76,78,79,80,80,78,76,74,74,76,77,77,77,77,77,77,77,77,77,77,77,77,77,77,77,78,78,78,78,78,78,78,79,82,84,84,84,84,84,84,83,80,79,79,80,82,83,84,84,85,85,85,84,83,82,81,81,83,85,87,88,88,87,85,67,20,1,0,0,0,0,0,23,81,127,128,107,41,31,67,120,145,159,154,151,149,148,148,145,138,116,82,38,7,0,0,0,0,0,0,0,0,2,13,16,12,8,7,6,4,4,5,5,5,5,5,5,5,5,5,6,9,12,15,16,16,15,12,10,9,9,9,9,9,9,9,10,15,16,16,16,16,16,16,16,16,16,16,17,20,21,21,20,19,19,19,19,19,19,19,19,19,19,19,19,19,19,19,19,19,17,16,15,14,14,12,13,15,17,17,19,19,19,19,20,20,21,21,22,23,23,23,24,24,24,24,24,24,24,24,23,23,24,25,27,28,28,29,28,25,24,25,27,28,24,15,7,1,2,12,15,7,13,31,45,76,65,21,1,0,0,0,0,0,2,12,29,36,38,31,30,33,40,54,56,47,23,5,23,72,145,165,213,213,167,52,3,1,0,0,0,0,0,1,1,0,2,10,25,38,45,47,39,19,4,0,0,0,0,0,0,0,0,0,0,0,1,1,0,0,0,0,0,0,0,0,0,0,0,0,0,0,0,0,0
0,0,0,0,0,0,0,0,0,0,0,0,0,0,0,0,0,0,0,0,0,0,0,0,0,0,0,0,0,0,0,0,0,0,0,2,12,66,168,209,207,206,206,205,204,205,207,210,214,218,217,216,214,212,208,205,203,203,204,205,204,203,201,197,189,185,184,182,178,177,176,176,174,174,175,175,176,177,179,180,180,180,180,180,180,180,180,182,186,188,188,189,191,192,192,194,198,200,202,205,208,210,211,213,215,217,219,221,221,223,227,230,234,241,252,203,60,4,10,13,25,34,48,56,61,60,56,41,9,0,1,1,0,0,0,0,0,15,50,68,66,67,66,66,66,67,70,71,72,71,70,70,69,69,69,70,72,74,75,76,76,77,77,77,77,77,77,78,78,78,78,79,79,79,79,79,78,78,78,80,80,80,81,81,80,81,83,85,89,91,93,92,89,88,88,87,87,87,89,90,91,92,92,93,94,96.00001,97.00001,98.00001,100,100,100,100,99.00001,99.00001,100,100,101,102,103,104,105,104,103,102,103,104,105,106,108,109,109,109,109,108,106,104,104,106,111,115,118,115,103,94,83,79,80,81,84,84,82,81,81,81,81,81,81,81,81,80,80,80,80,80,82,83,83,83,84,84,84,82,79,77,77,77,78,80,81,83,87,87,85,83,82,83,85,88,91,92,89,87,85,82,81,79,75,72,72,74,73,74,75,74,71,48,10,22,92,94,23,4,19,39,58,68,71,72,74,75,76,77,77,77,77,77,77,77,74,74,74,73,73,73,73,73,75,77,77,77,76,74,73,73,75,76,76,76,76,76,76,75,74,74,74,74,75,75,75,75,76,77,77,77,78,78,79,80,81,82,82,82,82,82,82,81,76,76,76,77,80,82,83,85,85,86,85,85,84,83,82,82,83,85,86,87,87,86,84,65,15,0,1,1,0,0,0,15,54,101,100,69,28,31,85,135,151,158,154,150,148,147,146,143,138,116,81,36,7,0,0,0,0,0,0,0,0,3,13,17,12,8,6,4,4,3,4,7,16,16,7,4,4,4,4,4,6,8,12,14,15,15,13,13,12,10,9,8,8,7,6,7,10,10,10,12,14,15,16,15,15,15,15,15,17,17,17,17,16,16,16,16,16,16,16,16,16,16,16,16,17,17,17,16,16,15,16,15,14,13,10,10,14,16,17,19,19,17,15,15,17,19,19,20,21,22,22,22,22,22,22,22,22,21,21,21,21,22,23,24,25,27,27,25,23,23,24,25,27,23,15,7,1,2,10,14,9,28,65,124,157,135,35,0,0,0,0,0,0,2,10,27,33,33,29,28,31,40,57,61,56,27,6,27,85,162,200,208,187,121,34,0,0,0,0,0,0,0,1,1,0,1,4,17,39,48,48,40,17,4,0,0,0,0,0,0,0,0,0,0,0,0,0,0,0,0,0,0,0,0,0,0,0,0,0,0,0,0,0,0
0,0,0,0,0,0,0,0,0,0,0,0,0,0,0,0,0,0,0,0,0,0,0,0,0,0,0,0,0,0,0,0,1,1,0,13,54,100,185,216,209,207,205,204,204,205,207,209,213,215,216,216,214,212,209,206,203,202,203,203,202,202,202,199,193,189,187,184,180,177,177,176,175,175,175,175,175,176,176,177,180,180,180,180,180,180,180,182,186,188,188,189,191,192,192,194,197,199,201,203,207,209,210,212,213,215,217,218,219,222,226,230,236,240,255,209,65,6,12,21,29,38,47,54,62,60,47,29,7,2,10,12,2,0,0,1,2,21,48,62,63,63,62,61,63,63,64,65,65,65,65,65,65,66,67,68,71,73,74,74,75,75,75,75,76,76,76,76,75,75,76,77,77,78,79,79,77,76,75,75,75,76,77,78,80,82,84,86,88,88,88,87,85,85,87,87,85,85,85,86,87,88,89,90,90,91,92,94,97.00001,98.00001,98.00001,97.00001,96.00001,95,94,95,97.00001,99.00001,100,100,101,101,100,101,103,105,106,107,108,109,109,108,106,105,105,104,102,104,110,113,113,110,101,94,81,77,77,77,77,77,77,78,80,81,82,83,83,84,84,83,81,81,81,81,81,82,83,84,84,85,85,83,78,76,75,75,76,78,81,83,86,86,84,82,81,80,79,81,88,89,85,83,82,81,81,80,78,74,73,74,75,74,75,76,75,54,10,20,87,90,22,4,22,43,61,68,66,66,67,69,73,75,75,75,75,75,75,74,74,74,74,73,71,70,70,71,72,73,73,74,74,74,73,74,76,77,77,77,76,76,76,74,71,70,71,71,72,73,74,74,74,75,75,77,78,80,82,82,80,79,79,79,79,79,79,77,74,73,73,74,78,81,85,87,87,87,86,85,84,83,82,82,84,85,86,86,86,85,84,64,12,1,13,14,1,0,0,7,39,69,68,38,9,31,118,150,154,155,153,150,146,144,143,141,138,117,83,40,9,0,0,0,0,0,0,0,1,4,14,19,13,8,4,3,2,2,2,14,65,39,10,2,4,2,0,1,1,4,6,12,15,16,16,16,16,14,10,8,5,5,2,2,3,5,5,7,12,14,15,15,14,14,14,13,12,12,12,12,13,13,13,13,13,13,13,12,13,13,14,14,15,16,16,14,12,12,15,17,16,14,10,9,12,15,20,21,19,15,10,10,13,15,16,17,20,21,22,22,22,22,22,22,20,19,19,19,19,20,21,22,23,24,24,23,22,22,24,25,27,24,17,9,2,2,8,12,7,44,112,194,221,182,45,0,1,0,0,0,0,2,12,28,32,33,29,28,31,38,51,51,36,20,2,32,102,182,223,218,160,109,27,0,0,0,0,0,0,0,0,0,0,0,0,12,41,54,50,38,14,2,0,0,0,0,0,0,0,0,0,0,0,0,0,0,0,0,0,0,0,0,0,0,0,0,0,0,0,0,0,0
0,0,0,0,0,0,0,0,0,0,0,0,0,0,0,0,0,0,0,0,0,0,0,0,0,0,0,0,0,0,0,0,1,1,0,20,98.00001,146,191,213,209,207,205,204,204,205,207,209,212,214,215,215,214,212,209,207,203,202,202,202,202,202,202,200,194,191,189,186,181,178,177,177,175,175,175,175,175,175,175,176,179,180,180,180,180,180,180,182,186,188,188,189,191,192,192,194,197,199,201,203,207,209,210,212,213,215,217,218,219,221,225,229,234,241,245,198,64,8,13,22,31,39,46,54,63,57,35,16,3,5,32,54,6,0,0,2,8,27,47,59,60,60,59,59,61,62,62,62,62,62,62,62,63,64,65,67,70,72,73,74,74,73,73,73,74,75,74,74,74,75,76,77,78,79,80,79,78,77,75,74,73,73,74,76,80,83,85,86,87,87,86,86,85,86,88,87,85,84,83,82,83,84,86,87,87,88,90,92,95,96.00001,95,94,93,92,91,92,94,96.00001,97.00001,98.00001,98.00001,98.00001,99.00001,100,103,104,105,106,108,108,108,107,103,102,103,102,101,102,107,109,107,102,92,82,74,72,73,74,74,74,75,77,80,82,83,84,85,85,85,84,82,81,81,81,81,81,82,83,84,85,85,83,78,76,75,75,76,78,80,82,84,84,83,81,79,76,74,77,84,87,82,80,79,79,80,80,79,76,76,77,77,77,77,78,80,60,16,19,75,63,16,4,23,44,62,68,65,64,64,66,71,73,73,73,73,73,73,73,73,74,74,73,71,70,70,70,71,71,71,71,73,73,73,74,76,77,77,76,76,75,75,73,69,68,69,70,71,72,73,74,74,74,75,77,79,81,84,83,79,77,77,77,77,77,77,75,73,71,71,73,77,81,85,87,87,87,86,85,83,82,81,82,83,84,84,84,84,83,83,63,12,4,34,49,8,1,0,2,16,25,22,10,1,31,127,159,155,153,152,149,145,143,142,140,138,117,84,40,10,0,0,0,0,1,0,0,1,2,9,14,13,9,5,4,5,6,6,22,49,54,29,12,4,5,7,15,20,17,12,8,14,16,15,15,15,14,10,7,4,4,10,10,6,5,4,5,9,13,14,14,14,13,13,12,9,8,8,8,10,10,10,10,10,10,10,10,12,13,14,15,15,15,14,12,9,10,15,17,17,15,10,9,12,15,20,20,19,14,9,7,9,12,13,15,17,20,21,22,22,22,22,20,19,17,17,17,17,17,19,20,21,22,22,22,21,22,24,25,27,24,17,10,2,1,6,8,5,52,175,229,250,208,71,21,31,31,14,2,1,2,12,29,33,33,29,27,30,32,41,39,20,6,1,32,122,178,225,205,107,51,12,0,0,0,0,0,0,0,0,0,0,0,0,9,42,54,47,33,12,2,1,0,0,0,0,0,0,0,0,0,0,0,0,0,0,0,0,0,0,0,0,0,0,0,0,0,0,0,0,0
0,0,0,0,0,0,0,0,0,0,0,0,0,0,0,0,0,0,0,0,0,0,0,0,0,0,0,0,0,0,0,0,1,1,0,23,106,125,189,207,207,207,205,204,204,205,207,209,212,214,215,215,214,212,210,207,203,202,202,202,202,202,202,200,194,191,189,186,182,179,178,177,175,175,175,175,175,175,175,176,179,180,180,180,180,180,180,182,186,188,188,189,191,192,192,194,197,199,201,203,207,209,210,212,213,215,217,218,219,221,225,229,235,231,220,165,54,7,14,22,30,36,44,51,61,52,22,4,1,16,59,61,15,0,0,3,14,31,49,58,56,57,58,59,61,62,62,62,62,62,62,62,62,63,65,67,70,72,73,74,74,73,72,72,72,72,71,72,74,76,77,78,79,80,80,80,80,79,77,74,73,72,72,75,80,84,86,87,89,89,87,87,88,89,90,90,87,85,82,80,79,79,80,81,84,87,89,91,93,93,92,90,89,89,89,90,92,93,94,95,96.00001,97.00001,98.00001,100,102,103,103,104,106,107,107,105,101,99.00001,101,100,101,101,104,103,99.00001,90,73,64,61,62,66,70,73,74,75,77,80,82,83,84,85,85,85,84,82,81,81,81,81,81,81,82,83,84,85,84,79,77,76,76,77,78,80,81,81,80,79,77,75,72,70,73,80,82,80,78,77,77,78,79,80,80,80,81,81,81,79,79,81,64,29,19,47,35,8,4,23,44,62,68,65,64,63,64,70,72,71,70,70,71,72,72,73,74,74,73,72,71,71,71,70,70,70,70,71,72,72,73,74,75,75,75,74,74,73,71,69,68,69,70,72,73,73,74,74,74,75,77,79,81,82,81,77,75,75,75,75,75,75,74,71,71,70,72,75,79,84,86,86,86,85,84,83,81,81,81,80,79,79,79,79,79,79,61,15,9,39,62,30,12,1,0,1,2,2,1,0,31,128,159,154,152,150,148,144,142,141,139,137,116,82,39,9,0,0,0,1,1,1,0,1,1,1,4,9,13,10,12,16,19,19,32,82,68,66,42,7,7,29,52,74,59,17,4,10,13,10,8,8,8,7,5,2,6,39,47,21,8,4,4,7,9,12,13,13,13,12,10,8,7,6,7,8,9,9,9,9,9,9,10,12,14,16,16,16,14,10,9,7,10,14,16,16,14,10,9,12,14,17,19,16,14,9,7,7,8,9,12,15,17,19,20,20,20,20,19,16,16,16,16,16,16,17,19,20,21,21,21,22,23,24,25,27,24,17,9,2,1,5,6,4,59,192,244,250,210,118,89,108,123,52,19,2,1,12,30,34,34,29,25,24,22,20,13,2,0,0,24,80,149,203,181,63,6,4,0,0,0,0,0,0,0,0,0,0,0,1,10,40,49,39,25,10,2,1,0,0,0,0,0,0,0,0,0,0,0,0,0,0,0,0,0,0,0,0,0,0,0,0,0,0,0,0,0
0,0,0,0,0,0,0,0,0,0,0,0,0,0,0,0,0,0,0,0,0,0,0,0,0,0,0,0,0,0,0,0,0,0,0,20,67,137,176,199,206,207,205,204,204,205,207,209,212,213,214,215,214,213,211,208,204,202,202,202,202,202,202,200,195,192,190,187,183,180,179,178,176,175,175,175,175,175,175,176,179,180,180,180,180,180,180,182,186,188,188,189,191,192,192,194,197,199,201,203,207,209,210,212,213,215,217,218,219,221,225,230,233,226,197,121,46,8,15,23,30,35,43,51,57,47,13,0,0,27,113,113,27,0,0,3,16,33,48,54,51,52,54,57,59,60,60,60,60,60,60,60,59,60,62,64,68,69,70,71,71,71,70,70,70,70,69,70,72,74,75,76,77,78,78,79,80,79,76,74,71,70,70,73,79,83,85,86,87,87,86,87,88,89,88,87,84,80,75,72,71,72,73,75,80,84,87,89,91,91,90,89,88,88,89,90,91,91,91,92,93,95,97.00001,99.00001,101,101,101,102,104,105,106,104,100,98.00001,100,99.00001,98.00001,96.00001,96.00001,89,78,65,46,35,42,48,58,67,71,74,75,77,80,82,83,84,85,85,85,84,82,81,81,81,80,80,80,81,82,83,84,83,80,78,78,78,78,79,79,79,79,79,79,78,76,75,74,75,79,81,79,77,77,77,79,81,79,81,83,85,85,85,83,83,83,70,40,20,14,9,3,5,22,43,61,68,64,63,62,63,68,70,69,69,69,69,70,71,73,73,73,72,71,70,70,70,70,69,69,69,70,71,71,72,72,72,72,72,72,71,70,69,68,67,68,70,72,73,73,73,73,74,75,76,78,79,80,79,75,73,73,73,73,73,73,73,71,71,70,71,74,77,82,84,84,84,84,83,81,80,80,79,76,75,76,76,77,77,77,61,16,16,48,76,60,38,7,0,0,0,0,0,0,30,122,152,151,150,149,147,142,140,139,137,135,115,81,38,8,0,0,0,0,1,1,0,1,1,5,22,50,65,66,65,63,60,56,66,91,103,140,93,40,31,89,82,115,98.00001,24,5,10,16,19,15,7,4,5,4,1,15,48,84,38,21,7,3,5,7,9,10,13,13,12,9,6,5,4,5,7,8,8,8,8,8,8,8,9,12,14,14,14,12,8,8,7,9,13,14,14,13,9,9,10,13,15,15,15,13,10,8,6,6,7,9,13,15,16,17,19,19,17,16,15,14,14,14,14,14,15,16,19,19,19,20,21,22,23,23,24,21,14,6,1,1,4,4,2,56,180,234,245,227,176,164,183,163,79,69,21,16,19,31,35,36,31,27,23,16,6,1,0,0,0,15,54,115,169,151,44,1,1,1,0,0,0,0,0,0,0,0,0,0,1,10,38,46,36,24,13,4,1,1,0,0,0,0,0,0,0,0,0,0,0,0,0,0,0,0,0,0,0,0,0,0,0,0,0,0,0,0
0,0,0,0,0,0,0,0,0,0,0,0,0,0,0,0,0,0,0,0,0,0,0,0,0,0,0,0,0,0,0,0,0,0,0,12,50,91,137,190,203,207,205,204,204,205,207,208,210,211,213,214,215,214,213,210,204,202,202,202,202,202,202,200,195,193,191,188,184,181,180,179,176,175,175,175,175,175,175,176,179,180,180,180,180,180,180,182,186,188,188,189,191,192,192,194,197,199,201,203,207,209,210,212,213,215,217,218,219,221,226,231,236,217,176,99.00001,40,10,16,23,29,35,44,50,52,41,9,1,1,42,144,144,41,0,0,3,16,30,44,50,46,46,49,51,52,52,52,52,52,52,52,52,52,52,54,57,61,63,64,64,64,65,65,66,66,66,66,67,69,70,71,72,73,74,74,75,78,77,74,71,69,68,68,71,76,80,82,83,84,84,83,84,87,86,81,78,74,69,62,59,57,59,63,67,73,79,86,89,90,91,92,93,93,93,93,93,92,91,89,89,90,92,95,97.00001,98.00001,98.00001,98.00001,99.00001,100,101,102,101,101,99.00001,98.00001,97.00001,92,85,81,67,45,24,8,4,17,31,49,64,72,75,76,78,80,82,83,84,85,85,85,84,82,81,81,80,79,78,79,80,81,82,83,83,80,80,80,80,80,79,79,78,78,79,79,80,82,83,85,85,82,80,79,78,77,79,81,82,79,81,85,88,89,89,87,86,87,75,47,19,4,0,0,2,19,40,59,66,62,61,60,61,65,67,67,67,67,67,68,69,70,71,71,70,68,67,67,67,69,69,68,68,69,70,71,71,69,69,69,69,69,68,67,66,66,66,67,68,70,70,70,71,72,73,74,74,75,76,77,76,73,72,72,72,72,72,72,72,70,71,70,71,73,75,79,81,82,82,82,81,80,79,78,76,72,70,71,72,74,75,76,62,20,20,51,88,94,74,20,0,0,0,0,0,0,24,108,137,144,147,146,143,139,137,136,134,133,113,79,35,7,0,0,0,0,0,0,0,1,7,29,68,158,184,193,184,169,153,137,151,190,207,219,193,103,82,125,100,90,62,15,2,8,22,43,38,12,2,4,2,2,19,52,94,59,71,14,1,4,4,5,7,12,12,10,7,5,4,3,3,5,6,6,6,6,6,6,5,4,4,5,7,8,8,7,7,7,7,9,10,10,9,7,7,7,8,10,12,12,12,10,8,5,4,5,6,10,13,15,16,16,16,15,14,10,9,9,9,9,10,10,12,14,15,15,16,17,17,19,19,19,15,7,2,1,0,1,2,1,41,110,193,232,244,222,211,213,185,97.00001,60,57,48,32,34,38,38,35,30,23,14,2,0,0,0,0,4,15,54,123,121,54,19,5,1,0,0,0,0,0,0,0,0,0,0,1,9,35,45,41,30,19,6,2,1,0,0,0,0,0,0,0,0,0,0,0,0,0,0,0,0,0,0,0,0,0,0,0,0,0,0,0,0
0,0,0,0,0,0,0,0,0,0,0,0,0,0,0,0,0,0,0,0,0,0,0,0,0,0,0,0,0,0,0,0,0,0,0,4,28,92,150,184,202,207,205,204,204,205,207,208,209,210,212,214,215,215,214,211,204,202,202,202,202,202,202,200,197,195,192,189,185,183,181,180,176,175,175,175,175,175,175,176,179,180,180,180,180,180,180,182,186,188,188,189,191,192,192,194,197,199,201,203,207,209,210,212,213,215,217,218,219,221,226,231,237,215,168,92,39,13,17,24,30,35,45,46,42,28,5,4,20,76,171,163,47,0,0,2,13,25,40,45,42,42,45,47,48,48,48,48,48,48,48,48,47,47,48,50,54,57,58,58,57,57,58,60,60,61,63,63,64,65,66,67,68,68,69,70,71,71,68,66,64,64,64,66,72,75,78,79,80,80,79,78,78,75,68,60,54,48,42,39,38,40,44,48,54,63,75,85,92,98.00001,101,103,103,103,102,100,98.00001,95,92,90,90,91,94,96.00001,96.00001,97.00001,97.00001,97.00001,98.00001,99.00001,100,99.00001,95,90,85,76,68,60,51,39,20,6,1,0,4,17,41,61,69,74,75,77,80,82,83,84,85,85,85,84,82,81,81,80,78,77,78,79,80,81,81,81,81,81,82,82,81,80,78,78,79,79,80,82,87,89,91,89,84,81,78,78,78,80,83,83,80,83,87,90,92,92,90,89,89,78,51,21,1,0,0,2,17,39,58,64,61,60,59,60,64,66,66,66,66,66,67,68,69,69,69,68,66,64,64,65,67,67,66,66,67,68,69,69,66,65,65,64,64,64,63,63,63,63,64,65,66,67,67,68,68,69,70,70,70,71,72,71,70,69,69,69,69,69,69,69,68,68,67,68,69,71,75,76,78,78,78,77,76,75,75,72,68,66,67,69,71,73,74,61,32,27,69,103,115,97.00001,41,3,1,0,0,0,0,16,69,119,136,145,144,142,138,135,134,132,130,111,77,34,7,0,0,0,0,0,0,0,0,7,34,113,190,230,231,230,216,165,141,152,224,249,249,216,145,111,88,109,99.00001,45,14,8,31,54,107,81,52,33,10,3,4,13,36,50,56,43,13,1,2,2,3,5,12,13,10,7,3,2,2,2,4,4,4,4,4,4,4,4,3,2,2,2,4,4,5,7,5,7,7,8,8,7,7,7,6,7,8,9,10,10,12,9,5,4,5,6,10,13,15,15,15,14,13,12,9,8,7,7,8,8,8,9,12,13,13,14,14,14,14,14,14,9,3,1,0,0,2,2,1,25,67,150,211,238,240,232,222,200,131,121,100,80,40,40,39,40,36,33,25,15,2,0,0,0,0,1,2,20,61,84,61,27,6,0,0,0,0,0,0,0,0,0,0,0,1,10,35,45,42,32,21,7,3,1,0,0,0,0,0,0,0,0,0,0,0,0,0,0,0,0,0,0,0,0,0,0,0,0,0,0,0,0
0,0,0,0,0,0,0,0,0,0,0,0,0,0,0,0,0,0,0,0,0,0,0,0,0,0,0,0,0,0,0,0,0,0,0,1,8,54,149,192,205,208,205,204,204,205,207,208,208,209,212,214,215,215,214,211,204,202,202,202,202,202,202,201,198,196,193,190,186,184,183,181,176,175,175,175,175,175,175,176,179,180,180,180,180,180,180,182,186,188,188,189,191,192,192,194,197,199,201,203,207,209,210,212,213,215,217,218,219,221,226,232,238,217,174,97.00001,43,15,19,24,31,38,45,42,28,10,1,22,73,140,184,161,45,0,0,1,8,19,35,42,40,40,42,44,45,45,45,45,45,45,45,45,44,44,45,47,49,51,52,51,47,47,49,51,54,56,58,59,60,60,61,61,62,63,64,64,62,60,59,58,57,57,58,61,67,71,74,76,77,77,75,72,66,54,42,30,24,19,13,10,10,12,13,14,20,29,54,81,100,113,118,121,123,122,117,113,109,103,98.00001,95,93,93,97.00001,97.00001,96.00001,96.00001,96.00001,96.00001,97.00001,98.00001,99.00001,94,84,68,52,38,23,15,14,12,7,10,12,4,3,9,32,54,68,74,75,77,80,82,83,84,85,85,85,84,82,81,81,80,78,76,76,77,79,80,80,81,81,82,84,84,82,80,78,77,80,82,84,85,88,90,91,89,84,81,78,78,79,81,84,84,82,83,89,92,95,95,92,90,90,79,54,25,5,0,0,2,19,39,57,63,60,59,58,59,63,64,64,64,64,65,66,67,67,67,66,64,62,61,61,63,65,66,65,65,66,67,68,67,64,63,62,61,61,61,61,60,60,60,61,62,63,64,65,65,65,66,66,66,66,66,66,67,67,67,67,67,67,67,67,67,65,65,64,64,65,67,70,72,74,75,74,73,72,71,71,69,65,63,64,66,69,71,72,59,29,39,109,135,128,107,66,28,4,0,0,0,0,6,36,92,125,144,143,141,137,134,133,131,128,109,76,33,7,0,0,0,0,0,0,0,0,4,24,73,158,225,195,227,234,218,179,186,237,252,237,187,81,34,30,31,29,22,10,19,88,101,165,147,161,95,32,2,2,2,2,13,39,69,16,1,1,1,1,4,9,13,10,7,3,2,1,1,2,4,4,4,4,4,4,4,5,4,2,2,2,3,4,6,4,5,5,4,6,6,6,6,5,6,7,8,9,10,10,9,6,5,6,8,13,15,16,16,14,13,12,10,8,7,6,6,7,7,7,8,9,10,12,12,12,10,10,10,9,5,1,0,0,1,4,4,1,6,25,71,176,220,235,231,221,209,197,168,94,61,41,40,40,41,38,34,29,20,4,0,0,0,0,0,1,4,16,23,27,30,5,0,0,0,0,0,0,0,0,0,0,1,2,14,38,46,42,32,21,8,4,1,0,0,0,0,0,0,0,0,0,0,0,0,0,0,0,0,0,0,0,0,0,0,0,0,0,0,0,0
0,0,0,0,0,0,0,0,0,0,0,0,0,0,0,0,0,0,0,0,0,0,0,0,0,0,0,0,0,0,0,0,0,0,0,1,6,47,152,168,208,212,207,205,203,204,207,207,207,208,210,213,214,215,215,212,206,203,202,202,201,201,201,200,199,197,194,192,187,185,183,181,178,177,177,176,176,176,176,176,179,180,180,180,180,180,180,182,186,188,188,189,191,192,192,194,197,198,201,203,206,208,209,211,212,214,216,217,219,221,227,233,240,216,165,88,40,15,19,25,32,38,45,38,16,2,4,43,130,176,198,161,44,0,0,1,6,16,30,38,38,39,40,41,41,41,41,41,41,42,42,42,42,42,42,43,43,44,44,43,39,38,40,42,45,48,50,52,54,54,54,54,54,56,57,57,54,51,50,50,51,51,52,56,60,64,66,70,72,70,62,54,43,30,17,13,15,15,12,9,9,8,6,4,2,7,40,78,113,133,138,142,144,144,140,135,127,117,105,95,86,83,86,85,78,75,76,78,83,85,84,76,59,41,21,8,3,3,5,12,17,29,31,19,3,4,27,48,66,74,75,76,79,80,81,82,83,84,84,83,81,81,81,80,77,75,75,76,78,78,78,79,81,83,84,84,82,80,78,78,82,84,85,86,88,89,90,88,82,79,78,79,80,82,84,84,83,84,88,92,96.00001,96.00001,94,92,90,78,54,27,6,1,0,3,17,38,54,61,58,57,56,57,61,63,64,64,64,64,65,65,65,64,63,62,60,59,59,60,64,65,64,64,65,65,66,66,63,62,61,60,60,60,60,60,59,59,59,60,61,62,63,64,64,64,64,64,64,64,64,64,66,66,66,66,66,66,66,66,64,64,63,63,64,65,68,70,72,72,71,69,68,68,68,67,63,63,64,66,68,70,70,57,19,42,125,149,135,116,90,54,12,0,0,0,0,1,15,49,122,145,141,138,135,134,133,130,127,107,72,29,5,0,0,0,0,0,0,0,1,2,15,64,180,224,228,236,248,228,184,152,233,248,232,157,78,36,28,22,17,12,4,32,91,171,206,223,208,159,45,2,1,4,10,16,28,22,7,1,1,2,1,2,6,9,7,4,1,1,0,0,1,1,2,3,2,9,28,43,59,50,16,1,0,1,3,4,4,5,4,3,3,4,5,5,3,3,4,5,7,8,8,7,5,4,5,7,12,14,16,16,15,13,12,10,7,6,5,5,6,7,7,8,9,10,10,10,9,9,8,7,7,5,6,5,1,1,4,5,2,1,1,34,99.00001,174,213,230,221,213,217,184,112,45,31,39,39,38,35,32,28,20,4,1,0,0,0,0,0,0,0,1,12,15,1,0,0,0,0,0,0,0,0,0,0,1,8,23,43,48,42,33,23,9,3,1,0,0,0,0,0,0,0,0,0,0,0,0,0,0,0,0,0,0,0,0,0,0,0,0,0,0,0,0
0,0,0,0,0,0,0,0,0,0,0,0,0,0,0,0,0,0,0,0,0,0,0,0,0,0,0,0,0,0,0,0,0,0,0,4,29,65,146,187,207,220,210,206,204,203,206,206,205,205,208,210,213,215,216,214,209,205,203,201,199,199,200,200,198,197,197,194,189,187,184,182,181,181,181,181,180,179,178,178,180,180,180,180,180,180,180,182,186,188,188,189,191,192,192,193,197,199,200,202,205,207,208,209,211,213,214,215,218,222,228,236,245,213,144,64,29,13,19,24,31,36,43,34,6,3,19,66,160,196,201,155,43,0,1,2,8,16,25,32,35,38,36,35,33,32,33,34,35,35,35,36,41,40,38,36,35,34,32,31,29,28,29,31,34,38,41,43,43,44,45,45,43,44,45,45,43,42,42,43,44,44,45,46,50,54,54,58,63,56,38,20,10,5,4,12,38,46,45,44,44,40,33,17,2,8,31,67,134,162,167,170,173,173,174,170,157,140,116,92,70,61,64,58,32,22,22,34,56,60,50,35,17,7,3,4,12,20,24,34,47,52,54,34,4,2,19,43,63,73,74,75,76,77,77,78,80,81,81,80,80,80,80,78,75,74,74,74,75,75,75,77,81,83,83,82,82,81,80,81,84,85,86,87,87,88,88,86,81,79,79,80,82,83,84,84,85,86,87,89,92,93,93,92,89,77,54,24,4,0,0,2,16,35,50,57,56,54,54,56,60,62,63,64,64,64,63,63,61,60,60,59,56,54,54,57,63,64,64,64,63,63,63,63,63,63,62,61,61,61,61,61,60,59,60,60,60,61,62,63,64,64,64,64,64,64,64,64,66,66,66,66,66,66,66,66,66,65,65,65,65,66,66,68,70,70,67,65,64,64,65,65,67,68,70,71,72,72,72,57,16,40,136,159,140,125,113,84,20,0,0,0,0,1,2,38,123,147,142,138,135,134,133,131,128,106,54,22,4,0,0,0,0,0,0,0,0,1,4,54,172,225,244,255,255,233,146,142,208,235,237,208,115,83,77,67,34,14,5,44,120,202,236,241,224,173,56,4,1,19,64,68,27,5,1,1,8,10,1,0,2,3,1,0,0,0,0,0,0,0,0,2,2,24,72,145,181,155,46,0,0,0,2,4,4,5,4,2,1,1,4,1,1,1,1,2,3,4,4,4,2,2,2,4,5,9,14,16,15,14,12,9,8,6,4,4,7,8,8,9,12,12,9,8,9,8,6,5,5,15,34,30,6,1,4,7,6,1,1,9,31,83,192,227,222,212,181,166,64,23,25,35,33,32,30,27,22,15,4,1,0,0,0,0,1,0,0,0,4,4,0,0,0,1,0,0,0,0,0,0,0,4,23,42,50,51,44,35,24,10,2,0,0,0,0,0,0,0,0,0,0,0,0,0,0,0,0,0,0,0,0,0,0,0,0,0,0,0,0,0
0,0,0,0,0,0,0,0,0,0,0,0,0,0,0,0,0,0,0,0,0,0,0,0,0,0,0,0,0,0,0,0,0,0,0,4,27,86,104,164,197,210,209,207,204,203,204,204,203,203,206,209,212,215,217,216,211,207,204,201,199,198,199,200,198,198,197,195,191,188,185,183,183,183,183,182,181,180,179,179,180,180,180,180,180,180,180,182,186,188,188,189,191,192,192,193,196,198,199,201,204,207,208,209,211,212,213,215,218,223,229,237,250,210,92,36,19,12,19,24,30,35,38,29,2,7,45,114,179,208,197,147,40,0,1,2,9,16,22,29,33,35,34,32,29,28,29,30,31,32,32,34,39,38,35,33,29,27,24,22,21,20,20,21,24,28,31,33,34,35,36,36,35,35,38,39,36,35,36,38,39,40,40,41,42,44,45,49,54,47,21,4,1,0,1,10,39,50,52,52,51,47,38,20,4,8,41,95,153,180,184,187,190,192,194,190,181,154,112,68,39,25,30,23,5,1,2,7,24,27,19,8,2,0,0,2,21,32,40,49,59,60,54,32,4,2,20,43,61,70,71,72,74,75,75,75,77,77,77,77,77,77,77,76,75,74,74,74,74,74,74,75,79,81,80,79,79,80,80,81,83,84,84,84,84,84,84,83,80,79,79,80,82,83,83,84,85,85,85,86,88,89,90,90,87,76,54,24,4,0,0,2,16,33,48,54,54,54,54,54,57,59,61,62,62,61,60,59,58,58,58,57,54,54,54,56,61,63,63,63,62,62,61,62,63,63,62,61,61,61,61,60,60,59,59,59,59,60,60,61,62,63,63,63,63,63,63,64,65,66,66,66,66,66,66,66,66,66,66,66,66,66,66,66,68,67,64,63,63,63,64,66,67,69,71,72,72,71,70,54,17,35,129,155,139,130,126,97.00001,24,0,0,1,0,0,0,27,109,141,137,137,136,135,133,131,129,108,66,21,4,0,0,0,0,0,0,0,0,1,2,43,125,211,244,255,255,232,187,176,201,186,221,207,171,153,147,135,81,64,51,83,187,235,251,255,236,168,96.00001,60,47,67,149,151,63,33,21,32,47,43,8,0,1,2,9,5,0,1,28,36,24,12,8,4,3,39,113,196,237,208,90,29,7,2,2,4,2,3,2,2,9,14,7,12,22,19,8,2,2,2,2,2,2,2,1,2,4,6,10,14,14,14,12,9,7,5,4,4,6,7,8,9,12,10,8,6,7,7,6,6,5,25,58,84,15,1,4,14,30,31,15,7,2,41,146,191,215,210,183,138,42,8,19,31,31,30,28,23,17,12,2,1,0,0,0,0,0,1,1,4,16,29,12,1,3,0,0,0,0,0,0,1,1,12,38,54,56,54,46,36,24,8,1,0,0,0,0,0,0,1,1,1,1,1,1,0,0,0,0,0,0,0,0,0,0,0,0,0,0,0,0,0
0,0,0,0,0,0,0,0,0,0,0,0,0,0,0,0,0,0,0,0,0,0,0,0,0,0,0,0,0,0,0,0,0,0,0,1,15,38,66,129,167,197,206,210,206,204,203,203,202,203,206,209,212,215,217,216,213,208,205,202,199,198,199,200,198,198,197,195,193,189,186,184,183,183,183,182,181,180,179,179,180,180,180,180,180,180,180,182,186,188,188,189,191,192,192,193,196,198,199,201,204,207,208,209,211,212,213,216,219,224,232,241,252,203,70,13,10,13,19,23,29,32,30,19,1,20,83,147,191,204,189,119,36,0,0,2,8,15,21,25,31,32,31,29,27,25,27,28,29,30,30,31,36,35,33,30,27,24,20,17,16,14,13,14,17,20,24,24,22,22,27,28,28,29,32,32,31,31,31,31,33,33,34,35,35,36,38,43,49,40,14,1,0,1,3,12,27,36,42,44,46,41,31,14,4,20,66,129,172,195,197,200,202,205,204,202,200,166,106,41,13,3,4,4,1,0,1,1,1,1,1,1,0,0,0,4,27,41,47,52,58,54,39,17,2,4,30,51,62,68,69,70,72,73,73,73,75,76,76,76,76,76,76,76,74,74,74,74,74,74,74,75,78,79,79,78,78,79,80,80,82,82,82,82,82,82,82,81,80,79,80,81,83,83,83,84,85,85,85,86,87,88,88,87,85,75,54,27,4,0,0,2,15,32,47,54,52,52,52,54,56,58,60,61,60,59,57,56,57,57,57,56,54,54,54,56,61,62,62,62,62,61,61,60,61,61,60,60,59,59,59,59,58,58,58,58,58,58,59,59,60,61,61,61,62,62,62,63,64,64,64,64,64,64,64,64,64,64,64,64,64,64,64,64,64,63,62,61,63,64,66,67,68,69,70,71,71,70,68,51,9,29,112,138,135,133,130,101,28,1,1,1,0,0,0,17,66,110,127,137,137,136,132,131,131,115,83,32,9,0,0,0,0,0,0,0,0,1,1,33,98.00001,181,233,255,255,245,216,175,204,198,192,157,193,160,175,145,181,180,165,154,230,255,255,255,247,231,208,185,129,168,216,209,121,117,87,99.00001,139,123,31,3,2,12,42,38,4,25,92,145,99.00001,68,28,10,7,61,186,241,255,238,176,101,58,27,4,0,0,0,0,4,40,44,24,32,70,72,31,8,2,1,2,3,4,3,1,2,3,4,6,8,10,10,8,7,6,4,4,3,3,4,6,8,9,9,6,5,4,5,7,9,9,36,81,107,23,1,2,28,74,110,54,32,6,13,43,97.00001,195,200,118,91,23,4,16,31,31,31,27,21,14,7,1,0,0,0,0,0,0,6,19,34,50,50,32,14,17,2,1,0,0,0,0,1,6,27,54,64,61,56,49,38,21,4,0,0,0,0,0,0,0,1,0,0,1,1,0,0,0,0,0,0,0,0,0,0,0,0,0,0,0,0,0,0
0,0,0,0,0,0,0,0,0,0,0,0,0,0,0,0,0,0,0,0,0,0,0,0,0,0,0,0,0,0,0,0,0,0,0,0,4,19,46,84,139,194,207,212,209,206,203,201,201,202,204,208,211,214,216,216,214,211,208,203,200,198,199,200,198,198,197,196,194,191,187,185,183,183,183,182,181,180,179,179,180,180,180,180,180,180,180,182,186,188,188,189,191,192,192,193,196,198,199,201,204,207,208,209,211,212,214,217,220,226,234,243,252,195,57,2,7,13,19,23,28,29,21,15,9,43,129,180,202,207,189,138,36,0,0,2,9,15,19,22,27,27,27,24,23,23,24,25,27,27,28,29,33,33,30,28,24,21,17,15,10,9,8,8,10,13,16,16,14,14,20,21,23,24,28,30,29,28,28,29,30,31,32,33,33,33,34,40,46,36,9,0,0,0,3,9,22,30,34,40,41,38,29,10,2,25,82,145,182,201,203,206,208,207,201,199,199,161,67,15,1,0,0,0,0,0,1,0,0,0,0,0,0,0,0,2,19,31,36,41,50,43,29,10,3,10,38,56,62,65,68,69,71,71,71,72,74,75,75,75,75,75,75,75,74,74,74,74,74,74,74,74,75,76,76,77,77,78,79,79,80,80,80,80,80,80,80,79,78,78,80,81,82,82,83,83,83,84,84,84,85,85,84,83,81,73,52,29,6,0,0,2,14,31,46,51,50,50,50,51,54,56,58,59,58,56,54,54,54,56,56,56,54,54,54,56,59,60,60,60,60,60,59,58,59,59,59,58,57,57,57,57,57,57,57,57,57,57,57,58,59,59,59,60,60,61,61,61,62,63,63,63,63,63,63,63,63,63,63,63,63,63,63,62,61,60,60,60,63,65,68,68,68,68,69,70,69,68,65,49,8,21,75,120,130,135,134,108,43,7,2,2,4,3,1,9,40,89,118,135,137,135,132,131,132,117,85,42,9,0,0,0,0,0,0,0,0,1,1,29,85,171,224,255,255,251,240,227,189,204,193,159,201,201,190,167,208,217,209,227,254,255,255,255,255,249,247,236,208,212,251,244,197,146,179,182,183,125,40,0,0,17,71,106,30,54,172,211,191,157,90,65,65,106,213,255,255,239,212,176,135,69,28,6,7,9,7,29,104,92,76,90,162,162,90,51,17,2,3,4,5,5,3,4,14,20,20,16,8,5,4,4,4,4,3,2,2,3,4,6,6,6,4,4,4,4,6,8,14,41,93,119,29,1,1,36,106,153,129,64,20,1,4,57,181,195,99.00001,49,13,2,13,29,30,30,25,20,12,5,0,0,0,0,0,0,0,12,52,98.00001,114,104,72,30,14,1,0,0,3,8,1,1,12,33,61,67,61,54,47,36,19,4,1,0,0,0,0,0,0,0,0,0,0,0,0,0,0,0,0,0,0,0,0,0,0,0,0,0,0,0,0,0
0,0,0,0,0,0,0,0,0,0,0,0,0,0,0,0,0,0,0,0,0,0,0,0,0,0,0,0,0,0,0,0,0,0,0,0,1,12,35,104,170,207,215,215,212,208,203,200,200,201,203,206,210,213,215,216,216,214,210,206,201,199,200,199,197,197,198,197,195,193,189,187,184,183,183,182,181,180,179,179,180,180,180,180,180,180,180,182,186,188,188,189,191,192,192,193,196,198,199,201,204,207,208,209,210,211,213,216,221,227,235,242,248,197,62,2,8,13,19,23,25,24,20,14,27,72,161,202,214,215,203,151,42,0,1,2,10,15,15,16,19,19,19,19,17,17,19,20,21,22,23,25,29,28,25,22,19,16,12,9,6,4,4,4,4,5,7,9,9,10,16,17,19,21,25,28,27,27,27,28,30,31,31,31,31,32,33,38,45,35,8,0,0,0,1,6,20,28,33,38,40,36,30,13,2,29,107,152,183,200,203,205,208,201,184,172,176,136,42,2,0,0,0,0,1,1,0,0,0,0,0,0,0,0,0,1,2,5,10,16,33,30,16,7,8,21,43,58,64,67,68,69,71,71,71,72,73,74,74,74,74,74,74,74,74,74,74,74,74,74,74,73,72,72,73,74,75,77,78,78,77,76,76,76,76,76,76,76,76,76,77,78,80,80,81,81,81,81,81,80,80,79,78,77,75,68,56,33,8,1,0,2,10,27,42,48,48,48,47,48,51,54,54,56,56,54,51,51,52,54,54,54,56,56,56,56,56,56,56,56,56,54,54,54,54,54,54,54,54,52,52,52,52,54,54,54,54,54,54,54,56,57,57,57,57,58,58,58,60,61,61,61,61,61,61,61,61,61,61,61,61,61,61,60,59,59,58,60,63,65,68,69,67,67,68,68,66,64,61,46,7,15,59,104,125,137,136,116,72,29,4,5,20,21,5,4,17,51,117,140,136,132,132,131,132,114,83,39,6,0,0,1,0,0,0,0,0,1,1,32,94,176,229,255,255,255,255,251,241,234,230,216,192,156,193,192,186,168,226,248,255,255,255,255,255,255,255,246,223,195,251,254,235,230,238,230,207,133,38,0,0,31,136,153,76,93,214,251,245,231,209,198,197,210,237,244,232,219,187,205,187,125,73,49,47,49,48,71,153,182,193,213,234,234,212,163,57,12,6,4,5,5,5,19,42,52,51,38,10,1,1,1,2,2,2,2,2,2,4,4,1,3,2,1,3,4,4,5,5,35,91,117,30,1,1,40,149,186,175,108,43,2,2,51,176,194,110,60,13,1,8,24,25,27,25,20,12,5,0,0,0,0,0,0,0,32,95,159,166,149,99.00001,46,16,1,2,8,32,34,4,1,10,33,56,63,58,51,41,31,17,4,1,0,0,0,0,0,0,0,0,0,0,0,0,0,0,0,0,0,0,0,0,0,0,0,0,0,0,0,0,0
0,0,0,0,0,0,0,0,0,0,0,0,0,0,0,0,0,0,0,0,0,0,0,0,0,0,0,0,0,0,0,0,0,0,0,0,1,4,22,70,157,197,211,221,215,210,204,200,200,201,203,206,209,212,215,216,218,217,212,208,204,200,200,199,197,197,198,198,196,194,191,188,184,183,183,182,181,180,179,179,180,180,180,180,180,180,180,182,186,188,188,189,191,192,192,193,196,198,199,201,204,207,208,208,209,210,213,216,222,230,238,239,230,177,54,5,8,14,21,23,19,14,14,31,67,132,184,215,223,212,199,149,40,0,1,4,12,14,13,13,13,14,14,14,15,16,16,17,19,20,21,23,27,25,23,20,16,14,9,7,5,4,3,2,2,3,4,6,7,10,15,16,16,19,22,24,24,24,24,25,28,29,29,30,30,30,31,36,43,33,7,0,0,0,1,5,19,27,31,35,39,36,31,14,4,24,74,133,159,173,177,177,174,164,113,125,128,78,17,0,0,0,0,0,1,1,0,0,0,0,0,0,0,0,0,0,0,0,1,5,14,14,5,6,16,31,47,59,65,68,69,70,72,73,73,73,73,74,74,74,74,74,74,74,74,74,74,74,74,74,74,72,70,69,70,72,74,76,77,77,76,75,75,75,75,75,75,75,75,75,76,77,78,79,80,80,79,78,78,78,77,75,74,72,71,66,57,38,9,1,0,1,9,27,41,47,47,46,45,46,48,50,52,52,52,51,49,49,49,51,52,54,54,56,56,56,54,54,54,54,54,52,52,52,52,54,54,52,52,51,51,51,51,51,52,52,52,52,52,54,54,56,56,56,56,56,56,56,58,58,59,59,59,59,59,59,59,59,59,59,59,59,59,59,58,58,58,59,62,64,68,68,67,66,67,67,64,62,59,44,6,12,49,95,123,137,137,121,91,45,12,6,29,50,24,10,9,39,109,136,132,131,131,131,129,109,71,27,4,0,1,1,0,0,0,0,0,1,1,39,114,199,239,255,255,255,255,255,253,250,251,235,205,167,207,178,165,193,232,243,255,255,255,255,255,255,255,255,239,232,253,255,255,255,255,255,232,176,62,14,19,56,134,181,124,172,237,255,255,255,255,255,253,254,243,230,190,213,218,230,228,201,129,138,109,138,136,119,174,172,226,251,255,255,255,214,104,48,20,2,4,12,29,59,120,101,117,60,13,0,0,0,1,1,1,2,2,2,2,4,7,7,4,2,3,4,4,4,3,34,88,119,30,1,1,41,122,184,170,133,35,5,17,71,182,200,151,101,27,2,8,22,24,25,24,21,14,7,1,0,0,0,0,0,1,43,152,193,193,171,121,66,38,14,17,29,52,49,9,2,6,28,49,58,52,47,38,30,17,6,2,1,1,4,6,6,2,0,0,0,0,0,0,0,0,0,0,0,0,0,0,0,0,0,0,0,0,0,0,0
0,0,0,0,0,0,0,0,0,0,0,0,0,0,0,0,0,0,0,0,0,0,0,0,0,0,0,0,0,0,0,0,0,0,0,0,0,0,2,35,98.00001,168,204,221,218,214,207,202,200,201,203,206,209,211,213,217,220,219,215,210,205,202,200,199,198,197,198,198,197,195,194,191,186,183,183,182,181,180,179,179,180,180,180,180,180,180,180,182,186,188,188,189,191,192,192,193,196,198,199,201,204,207,208,208,210,211,213,217,223,232,241,230,198,115,43,4,8,15,23,22,12,10,28,62,140,178,205,223,223,206,168,97.00001,31,1,2,5,13,14,12,10,10,10,12,13,14,15,16,16,17,19,20,22,25,24,22,19,15,12,8,7,6,5,3,3,3,3,4,6,9,12,15,15,15,15,19,19,17,19,19,20,22,23,24,24,25,27,28,33,40,30,4,0,0,0,2,6,17,25,30,35,40,40,33,16,4,12,39,87,107,120,124,120,114,71,47,33,33,21,2,0,0,0,0,0,0,0,0,0,0,0,0,0,0,0,0,0,0,0,0,1,1,2,2,8,27,42,51,61,66,70,71,72,74,75,75,74,74,74,72,72,72,72,72,72,74,74,74,74,74,74,74,72,67,66,68,70,72,74,75,75,75,75,75,75,75,75,75,75,75,75,76,77,78,79,78,79,77,76,76,75,73,72,71,69,68,64,58,40,12,1,0,1,8,25,40,45,45,45,44,44,45,46,48,49,49,48,47,47,48,49,51,52,54,54,56,56,54,54,52,52,52,52,51,51,52,52,52,52,51,51,50,50,50,50,50,50,50,50,50,51,54,54,54,54,54,54,54,54,56,57,57,57,58,58,58,58,58,58,58,58,58,58,58,58,59,59,58,58,60,62,66,67,66,66,66,66,63,61,58,43,7,12,50,96.00001,123,137,134,124,104,64,17,6,30,58,56,33,7,27,102,124,129,130,131,130,126,102,45,9,2,0,0,0,0,0,0,0,0,1,1,50,175,229,247,255,255,255,255,255,255,254,255,248,233,230,233,235,232,228,201,235,251,255,255,255,255,255,255,255,255,255,255,255,255,255,255,255,255,220,113,81,84,106,149,207,219,232,253,255,255,255,255,255,255,253,202,215,178,212,240,252,255,243,234,222,222,223,219,202,175,152,210,235,253,255,255,237,183,126,34,2,2,25,69,148,197,201,167,85,21,0,0,0,1,1,1,2,2,2,1,6,22,25,8,4,5,5,4,4,2,32,89,119,29,1,1,36,103,147,80,45,22,21,65,141,197,211,188,137,50,19,22,27,25,24,24,22,17,12,2,1,0,0,0,0,0,46,171,211,196,175,143,110,81,58,52,57,66,57,20,2,2,15,42,52,47,40,38,31,20,7,2,2,7,21,39,39,8,0,0,0,0,0,0,0,0,0,0,0,0,0,0,0,0,0,0,0,0,0,0,0
0,0,0,0,0,0,0,0,0,0,0,0,0,0,0,0,0,0,0,0,0,0,0,0,0,0,0,0,0,0,0,0,0,0,0,0,0,0,0,13,60,134,195,226,219,214,208,203,201,201,202,204,207,209,212,216,219,219,217,213,208,205,202,200,199,197,198,197,196,195,195,192,188,184,184,184,183,181,180,180,180,180,180,180,180,180,180,182,186,188,188,189,191,192,192,193,196,198,199,201,204,206,207,208,209,210,213,217,224,234,244,222,168,85,32,4,9,15,24,23,8,25,60,127,177,206,219,225,228,202,152,77,24,1,4,7,13,13,10,8,8,8,9,12,14,15,14,14,16,19,19,20,22,22,20,16,12,6,4,3,3,9,24,31,31,23,8,4,5,7,12,9,9,10,13,15,14,15,17,19,20,21,22,23,23,24,27,32,40,30,4,0,0,1,2,7,17,24,30,36,41,42,36,21,7,5,16,30,46,56,59,54,42,23,4,0,0,0,1,0,0,0,0,0,0,0,2,2,1,0,0,0,0,0,0,0,0,0,0,0,0,0,2,12,32,45,51,59,65,69,71,72,73,74,74,74,72,72,72,72,72,71,71,71,72,72,72,73,73,73,72,70,64,64,66,68,71,72,72,73,74,74,75,76,76,77,77,76,74,73,75,76,77,76,75,74,73,72,72,71,69,67,66,63,62,59,54,39,9,0,0,1,10,25,41,46,46,45,44,43,42,43,45,47,47,46,45,45,45,47,48,51,54,54,56,56,54,52,52,51,51,51,51,51,51,51,51,51,51,50,49,49,48,48,49,49,49,49,49,49,51,52,52,52,54,54,52,54,54,56,56,56,58,58,59,59,59,59,59,58,57,56,56,57,58,58,58,59,60,63,65,66,67,68,67,66,64,62,59,44,8,13,49,94,122,134,130,125,115,85,20,6,21,31,58,32,8,17,60,107,122,130,129,127,125,98.00001,32,3,1,0,0,0,0,0,0,0,0,4,17,75,199,243,253,255,255,255,255,255,255,255,255,254,247,250,249,251,251,246,233,232,251,255,255,255,255,255,255,255,255,255,255,255,255,255,254,255,255,239,188,161,175,189,209,229,251,255,255,255,255,255,255,255,255,255,236,222,216,225,249,255,255,255,255,255,255,255,250,229,193,159,184,234,250,255,255,241,196,103,38,1,4,39,106,189,238,242,203,123,56,15,8,4,4,2,1,1,2,1,1,5,54,34,10,4,5,6,6,8,10,47,115,142,35,1,1,36,104,138,45,14,4,33,89,162,201,213,193,151,65,40,41,38,29,24,24,21,15,9,6,4,0,0,0,0,1,58,181,217,196,175,148,124,91,69,62,62,70,65,40,16,10,22,43,50,43,39,38,31,20,7,1,10,41,66,84,99.00001,21,0,0,0,0,0,0,0,0,0,0,0,0,0,0,0,0,0,0,0,0,0,0,0
0,0,0,0,0,0,0,0,0,0,0,0,0,0,0,0,0,0,0,0,0,0,0,0,0,0,0,0,0,0,0,0,0,0,0,0,0,0,0,2,19,69,179,225,218,213,208,204,202,201,201,202,203,205,208,212,217,219,218,216,213,210,207,204,200,199,198,198,196,196,196,194,190,188,188,188,187,186,185,183,180,179,179,179,179,179,179,181,186,188,188,189,191,192,192,193,195,196,198,200,203,205,206,207,209,211,214,219,227,236,248,217,140,59,24,4,10,16,23,27,25,56,130,172,196,211,217,223,227,203,143,71,21,1,4,6,10,10,7,5,5,6,8,10,13,13,9,10,14,16,15,16,19,17,14,10,5,1,0,0,0,19,65,116,118,65,16,0,0,1,2,1,4,4,8,9,12,14,16,19,20,21,23,23,21,22,27,33,39,31,6,0,1,2,3,6,16,24,31,38,42,43,41,30,14,4,1,1,4,6,8,7,4,1,0,0,0,0,0,0,0,0,1,1,1,2,7,7,1,0,0,0,0,0,0,0,0,0,0,0,0,1,1,10,31,44,48,54,61,65,68,69,70,70,71,71,71,71,71,70,70,69,68,68,68,68,69,70,72,71,69,66,61,61,64,66,69,70,69,69,69,71,72,74,77,78,79,77,73,72,74,75,74,70,67,65,66,67,67,68,65,63,61,59,57,54,47,33,4,0,0,1,13,29,43,49,48,47,44,42,40,40,42,44,44,44,42,41,41,43,46,49,54,56,56,56,54,52,51,51,51,51,51,51,50,50,50,50,50,49,49,48,47,47,48,49,50,50,48,48,49,50,50,51,51,51,51,51,52,54,54,56,58,60,60,61,62,62,61,59,56,54,52,54,56,57,57,59,63,65,66,67,70,70,70,68,66,64,63,47,10,13,48,91,117,129,128,126,123,94,29,2,2,7,9,10,2,6,33,75,112,129,125,123,123,99.00001,38,8,1,0,1,1,1,0,0,0,0,14,56,140,213,249,249,250,250,251,252,253,252,252,254,254,254,254,255,255,255,254,248,249,255,255,255,255,255,255,255,255,255,255,255,255,255,254,253,255,255,250,193,216,231,242,248,253,255,255,255,255,255,255,255,255,255,255,255,249,245,247,255,255,255,255,255,255,255,253,234,195,223,227,234,245,255,255,255,226,159,70,19,0,10,54,155,209,245,255,239,201,117,76,50,31,20,6,2,0,0,0,0,1,5,8,4,2,5,7,7,15,32,82,184,176,49,1,1,42,152,150,51,7,2,34,89,163,195,200,174,139,70,59,58,48,35,27,24,17,5,5,17,12,2,0,1,2,6,63,185,220,194,172,151,122,81,46,51,52,65,65,54,46,43,44,50,51,45,41,39,31,19,5,1,27,117,149,167,141,35,0,0,0,0,0,0,0,0,0,0,0,0,0,0,0,0,0,0,0,0,0,0,0
0,0,0,0,0,0,0,0,0,0,0,0,0,0,0,0,0,0,0,0,0,0,0,0,0,0,0,0,0,0,0,0,0,0,0,0,0,0,0,0,0,45,163,212,214,214,209,205,203,202,201,201,202,204,207,210,215,218,219,218,215,212,209,206,202,200,199,198,196,196,196,195,192,191,191,190,189,188,187,185,180,179,179,179,179,179,179,181,186,188,188,189,191,192,193,193,195,196,198,200,203,205,206,207,209,211,215,220,229,240,250,210,90,35,16,8,12,16,20,31,50,105,163,197,207,213,217,223,225,194,121,52,13,1,4,6,9,9,6,5,5,6,8,9,12,12,9,9,13,14,14,14,16,14,12,8,4,4,17,19,13,35,79,132,130,77,17,2,17,25,25,23,16,9,8,6,10,14,16,19,19,21,23,22,19,20,25,32,38,30,7,1,1,1,2,5,14,22,30,36,40,43,43,35,21,8,2,0,0,0,0,0,0,0,0,0,0,0,0,0,0,0,1,1,0,1,7,8,1,0,0,1,0,0,0,0,0,0,0,0,0,1,1,7,29,41,45,51,58,63,66,67,68,68,69,70,70,71,70,69,68,67,66,66,65,66,67,68,70,70,67,64,61,61,63,65,68,67,64,62,62,63,66,68,71,72,74,71,65,63,66,65,62,56,50,44,46,47,48,47,44,42,40,38,36,34,30,23,9,4,4,7,14,28,43,49,49,48,46,43,39,39,41,42,43,42,40,39,39,41,44,48,54,56,56,54,54,52,52,52,52,52,52,52,50,50,50,50,50,50,50,49,47,47,49,51,52,51,49,49,49,49,49,49,51,51,50,50,51,52,54,56,59,61,62,63,64,64,63,60,56,54,52,54,54,57,58,60,63,65,66,68,72,73,72,70,67,66,64,49,12,13,47,88,115,127,126,127,129,103,39,8,0,0,0,1,1,1,4,39,106,128,124,121,121,101,57,15,3,0,1,1,1,1,0,0,0,21,74,158,220,249,247,246,246,247,249,250,250,251,252,254,255,255,255,255,255,255,255,255,255,255,255,255,255,255,255,255,255,255,255,255,255,253,252,254,255,253,241,243,255,255,255,255,255,255,255,255,255,255,255,255,255,255,255,255,255,255,255,255,255,255,255,255,255,251,233,231,244,249,248,249,249,251,254,227,141,85,40,29,54,99.00001,157,226,249,255,255,235,197,161,132,80,76,54,27,7,2,1,1,4,13,13,7,3,2,4,5,16,34,120,208,198,58,1,1,36,108,145,59,31,27,47,89,142,157,153,133,107,58,61,61,54,39,29,28,17,4,3,20,17,3,1,1,4,16,71,188,223,195,172,151,118,67,29,23,32,57,63,59,56,54,52,52,50,45,41,38,29,14,3,1,31,102,161,170,107,34,0,0,0,0,0,0,0,0,0,0,0,0,0,0,0,0,0,0,0,0,0,0,0
0,0,0,0,0,0,0,0,0,0,0,0,0,0,0,0,0,0,0,0,0,0,0,0,0,0,0,0,0,0,0,0,0,0,0,0,0,0,0,0,0,32,134,183,206,215,210,207,204,203,202,202,203,205,207,210,214,217,218,217,215,212,210,207,203,201,200,199,198,197,197,196,193,192,192,191,190,189,188,186,181,180,180,180,180,180,180,182,186,188,189,190,191,193,193,194,196,198,199,201,204,206,207,208,210,212,216,223,232,243,254,204,69,7,7,9,14,16,15,38,83,140,178,203,209,213,217,221,223,184,72,14,3,1,4,6,9,9,7,7,7,8,7,8,10,12,10,10,10,12,12,12,13,12,9,8,9,34,79,81,69,58,81,111,108,63,20,22,76,96.00001,88,77,60,38,9,3,8,12,16,17,19,20,22,21,17,19,22,27,33,25,5,0,0,0,1,4,10,17,25,31,36,39,43,40,32,23,19,13,9,7,4,3,1,1,0,0,1,1,0,0,0,0,0,0,0,0,1,1,0,0,0,1,0,0,0,0,0,0,0,0,0,0,0,4,22,35,43,50,58,62,65,66,67,68,69,70,70,71,69,68,67,66,66,65,64,64,66,67,67,67,65,64,64,64,64,64,65,63,56,52,50,51,54,56,57,59,60,58,50,48,48,46,40,29,20,13,12,10,12,12,9,7,5,4,4,5,8,15,27,31,24,15,12,21,38,47,48,49,48,46,41,40,41,42,42,41,39,38,39,41,44,48,52,54,54,54,54,54,54,54,54,54,54,54,52,51,51,51,51,51,51,50,49,49,52,54,54,54,52,51,50,49,48,48,50,51,51,51,52,54,54,56,60,62,63,64,65,65,63,61,58,56,56,56,57,58,59,60,62,64,65,68,72,73,72,70,67,66,64,50,13,13,44,85,113,126,126,127,128,111,76,25,2,0,0,0,0,0,1,33,103,129,124,121,118,103,73,28,7,1,1,1,1,1,1,1,1,24,75,158,218,248,246,245,245,246,247,248,250,250,251,252,254,255,255,255,254,253,251,250,252,253,255,255,255,255,255,255,255,255,255,255,253,252,250,250,254,253,249,250,255,255,255,255,255,255,255,255,255,255,255,255,255,255,255,255,255,255,255,255,255,255,255,255,255,252,248,248,252,253,251,243,227,222,247,243,217,179,104,96.00001,174,206,225,241,250,254,255,252,245,223,193,157,191,169,80,43,16,5,7,19,39,40,13,2,0,0,1,9,23,88,215,202,59,0,1,22,67,116,113,81,80,76,104,73,63,54,44,35,28,42,56,54,40,32,31,22,5,2,16,15,5,2,1,6,29,115,204,234,201,174,150,111,36,7,2,16,44,54,54,52,50,49,49,47,42,39,34,27,7,1,0,22,80,126,119,65,17,0,0,0,0,0,0,0,0,0,0,0,0,0,0,0,0,0,0,0,0,0,0,0
0,0,0,0,0,0,0,0,0,0,0,0,0,0,0,0,0,0,0,0,0,0,0,0,0,0,0,0,0,0,0,0,0,0,0,0,0,0,0,0,0,17,74,141,178,201,208,211,207,205,204,203,204,205,207,209,214,216,217,216,215,213,211,208,204,202,201,200,199,198,198,197,194,193,193,192,191,190,189,187,183,181,181,181,181,181,181,182,186,188,190,191,192,193,193,194,196,198,199,201,204,206,207,208,212,215,219,226,237,247,255,205,57,0,2,7,12,14,14,46,126,167,193,208,212,216,218,218,219,170,50,1,1,1,3,5,8,8,7,7,6,5,4,4,5,7,6,8,8,8,7,6,8,7,5,8,19,58,152,173,151,103,89,79,82,71,54,74,158,179,181,162,124,62,30,8,10,10,13,14,14,16,19,19,16,15,20,23,27,21,4,0,0,0,1,4,10,16,21,27,31,35,40,39,34,30,28,25,22,19,17,14,10,8,6,6,8,9,8,9,10,8,4,3,1,1,1,0,0,0,0,0,0,0,0,0,0,0,0,0,0,0,0,2,13,24,38,47,54,59,64,66,66,67,68,69,70,69,66,64,64,64,64,64,62,62,64,64,62,61,61,61,62,61,59,57,54,50,43,39,36,36,39,40,41,42,43,40,33,30,31,29,22,16,12,8,6,6,8,8,6,5,4,3,2,6,17,31,58,63,47,24,9,12,33,44,47,49,49,48,43,41,41,41,41,40,38,38,39,41,44,47,51,52,52,52,54,54,54,56,57,57,57,56,54,52,52,52,52,52,52,51,50,51,54,57,57,56,54,52,50,48,47,47,49,50,51,51,54,54,54,56,61,63,64,65,65,65,64,62,60,59,59,59,58,59,61,61,59,61,65,68,72,73,72,70,67,66,64,49,13,15,49,90,114,125,125,125,125,114,91,54,20,4,0,0,1,2,13,47,106,128,123,119,112,101,75,39,9,1,1,1,1,0,0,1,1,22,70,152,216,247,244,243,243,244,245,246,249,250,250,251,253,254,255,255,252,250,248,247,248,250,252,253,253,254,254,254,254,254,254,253,251,250,249,250,252,255,254,254,254,254,254,255,255,255,255,255,255,255,255,255,255,255,255,255,255,255,255,255,255,255,255,255,255,253,255,255,255,255,253,242,223,195,244,252,247,221,171,178,226,251,244,251,250,252,255,255,255,255,229,224,240,221,161,82,43,35,58,78,126,101,63,41,28,20,16,32,64,117,224,202,58,0,1,10,32,52,99.00001,83,114,104,52,30,13,4,3,3,6,23,54,52,40,33,33,24,7,4,17,17,10,5,1,4,23,80,196,229,204,177,143,100,28,1,1,8,35,46,47,46,44,45,45,43,39,35,30,22,4,0,0,12,54,90,45,25,4,0,0,0,0,0,0,0,0,0,0,0,0,0,0,0,0,0,0,0,0,0,0,0
0,0,0,0,0,0,0,0,0,0,0,0,0,0,0,0,0,0,0,0,0,0,0,0,0,0,0,0,0,0,0,0,0,0,0,0,0,0,0,0,0,3,21,58,133,168,204,217,212,208,206,205,204,205,206,208,212,215,216,216,215,214,212,209,205,203,202,201,200,199,199,198,195,194,194,193,192,191,190,188,184,182,182,182,182,182,182,183,187,188,190,191,192,192,193,193,195,196,198,200,203,205,206,209,213,218,225,233,242,253,255,211,58,0,5,7,9,8,17,54,144,184,202,212,213,219,221,217,211,160,46,0,1,1,2,4,6,7,8,6,4,1,0,0,1,1,2,5,6,4,3,2,4,2,3,12,35,119,198,236,228,200,128,136,101,138,123,184,224,245,246,216,152,83,54,31,19,9,4,7,9,10,16,12,13,15,16,20,20,14,3,0,0,0,2,6,13,17,20,24,25,29,32,33,30,28,30,29,28,28,27,27,29,29,28,29,32,35,39,42,43,39,31,25,17,13,7,4,1,1,1,1,0,0,0,0,0,0,0,0,0,1,0,0,2,8,25,40,47,54,59,62,64,65,67,68,67,65,62,59,60,60,62,62,62,62,62,60,54,54,56,57,54,51,47,43,32,28,17,10,10,10,10,12,12,13,14,13,9,7,7,9,14,19,23,25,25,27,29,30,30,29,28,27,24,39,63,74,78,72,57,30,6,7,27,41,45,48,50,49,46,44,42,41,39,38,38,38,39,41,44,47,49,50,49,49,51,52,54,56,57,58,59,58,54,54,54,54,54,54,54,52,50,51,54,57,58,57,54,51,49,47,46,46,47,48,49,51,52,54,56,58,62,64,65,65,65,65,65,64,63,62,62,62,60,61,64,63,56,57,65,70,73,73,72,70,67,66,64,49,10,17,62,102,115,121,120,121,123,120,112,95,54,32,7,2,4,21,54,97.00001,114,123,119,116,112,99.00001,76,45,10,0,1,1,0,0,0,0,0,14,58,114,209,243,241,240,240,241,243,244,246,249,250,251,252,253,255,254,248,247,245,245,245,247,250,251,252,253,253,253,251,251,251,250,247,247,249,250,252,253,253,253,253,253,254,255,255,255,255,255,255,255,255,255,255,255,255,254,255,255,255,255,255,255,255,254,252,252,254,255,255,254,252,246,236,236,246,251,253,240,182,211,241,254,253,252,252,253,255,255,255,255,249,246,250,234,203,159,81,111,173,206,216,206,178,120,97.00001,78,60,84,166,211,240,198,56,0,1,4,7,15,29,38,43,35,15,4,1,0,0,0,1,12,45,52,40,33,34,28,12,6,21,23,16,10,3,2,2,54,166,208,201,176,133,70,27,5,4,10,23,40,40,35,39,40,40,38,33,29,23,13,3,0,0,2,19,22,10,3,1,0,0,0,0,0,0,0,0,0,0,0,0,0,0,0,0,0,0,0,0,0,0,0
