0,0,0,0,0,0,0,0,0,0,0,0,0,0,0,0,0,0,0,0,0,0,0,0,0,0,0,0,0,0,0,0,0,0,0,0,0,0,0,0,0,0,0,0,0,0,0,0,0,0,0,0,0,0,0,0,0,0,0,0,0,0,0,0,0,0,0,0,0,0,0,0,0,0,0,0,0,0,0,0,0,0,0,0,0,0,0,0,0,0,0,0,0,0,0,0,0,0,0,0,0,0,0,0,0,0,0,0,0,0,0,0,0,0,0,0,0,0,0,0,0,0,0,0,0,0,0,0,0,0,2,12,23,34,43,46,50,52,55,57,59,62,64,65,68,71,72,70,70,71,74,75,77,78,81,82,83,83,86,86,86,88,88,88,88,86,87,93,99.00001,102,103,103,103,102,102,103,106,107,108,108,108,108,110,113,116,117,118,118,115,116,117,120,121,123,125,124,123,123,123,125,128,130,130,130,130,132,134,135,135,136,137,138,140,142,143,144,144,145,146,148,148,149,150,149,148,147,146,147,149,152,154,156,157,158,160,160,160,162,162,163,165,166,167,167,166,164,162,162,162,164,167,168,169,169,169,169,171,172,174,176,177,176,175,177,179,179,179,179,179,179,179,182,183,183,182,186,188,189,189,191,193,192,191,190,187,188,187,184,179,173,164,151,136,121,107,93,84,81,78,76,74,73,73,72,71,72,73,75,78,81,84,82,83,92,106,124,142,157,173,181,187,190,192,193,195,197,198,199,201,201,202,204,205,206,207,209,209,209,209,208,208,211,212,208,204,204,204,206,208,209,209,209,209,209,208,206,204,202,201,210,219,217,214,216,217,217,219,217,214,214,214,215,216,217,215,212,208,208,209,210,211,212,212,209,206,208,211,212,213,213,213,213,212,213,213,215,215,215,212,211,210,209,208,208,210,214,217,214,212,211,207,207,204,201,198,203,209,209,206,207,208,207,207,208,212,212,210,210,208,208,207,205,205,206,206,204,202,201,200,198,195,192,188,191,193,194,196,200,204,204,203,204,204,200,197,197,197,197,198,196,193,190,187,186,188,192,194,192,189,189,188,187,185,182,180,181,183,184,185,184,182,182,182,182,181,181,181,181,182,181,181,178,175,176,177,178,179,178,177,179,180,175,170,170,173,180,186,181,172,168,162,149,143,158,169,178,163,119,63,12,0,0,0,0,0,0,0,0,0,0,0,0,0,0,0,0,0,0,0,0,0,0,0,0,0,0,0,0,0,0,0,0,0,0,0,0,0,0,0,0,0,0,0,0,0,0,0,0,0,0,0,0,0,0,0,0,0,0,0,0,0,0,0,0,0,0,0,0,0,0,0,0,0,0,0,0,0,0,0,0,0,0,0,0,0,0,0,0,0,0,0,0,0,0,0,0,0,0,0,0,0,0,0,0,0,0,0,0,0,0,0,0,0,0,0,0,0,0,0,0
0,0,0,0,0,0,0,0,0,0,0,0,0,0,0,0,0,0,0,0,0,0,0,0,0,0,0,0,0,0,0,0,0,0,0,0,0,0,0,0,0,0,0,0,0,0,0,0,0,0,0,0,0,0,0,0,0,0,0,0,0,0,0,0,0,0,0,0,0,0,0,0,0,0,0,0,0,0,0,0,0,0,0,0,0,0,0,0,0,0,0,0,0,0,0,0,0,0,0,0,0,0,0,0,0,0,0,0,0,0,0,0,0,0,0,0,0,0,0,0,0,0,0,0,0,0,0,0,0,0,5,21,37,48,54,58,62,64,66,66,68,70,74,75,78,79,80,78,78,80,81,84,85,87,89,90,92,92,92,93,94,96.00001,98.00001,99.00001,99.00001,99.00001,100,103,107,110,110,111,111,112,112,113,114,115,117,117,117,118,120,120,123,124,125,124,124,125,126,128,130,132,133,133,132,132,132,134,136,137,138,140,140,141,142,143,143,145,146,147,148,150,152,152,152,153,154,155,156,159,160,159,158,157,157,157,158,161,163,165,165,168,168,168,168,170,171,171,172,174,175,176,176,176,175,174,175,177,179,179,180,180,181,181,182,183,185,185,186,185,185,186,188,188,190,190,190,190,190,191,192,194,194,194,196,197,197,199,200,199,199,198,197,196,196,194,190,184,175,162,144,127,110,96.00001,86,83,82,80,77,77,77,76,76,76,78,79,81,85,88,88,90,98.00001,111,129,148,167,184,193,195,198,201,203,204,205,207,208,210,210,211,212,211,214,215,215,216,216,216,216,218,219,219,217,214,213,212,214,216,218,219,220,220,222,225,224,222,218,214,220,224,225,222,224,226,227,228,229,230,232,233,232,231,233,233,228,222,221,224,224,224,224,222,219,218,219,222,224,224,225,225,226,229,229,227,227,228,226,223,221,219,219,218,217,219,223,224,224,222,218,217,218,217,212,207,212,219,221,220,218,215,216,219,225,229,228,226,223,218,219,220,219,219,219,218,214,212,211,210,209,206,203,200,202,204,208,211,213,215,215,214,215,216,212,209,206,204,204,206,204,203,201,200,199,199,201,202,200,200,199,199,197,194,193,192,192,193,193,192,191,191,191,190,192,192,192,190,187,186,187,188,187,187,189,190,189,187,187,186,188,190,185,180,180,181,188,194,187,179,174,169,157,130,158,180,182,174,151,116,43,0,0,0,0,0,0,0,0,0,0,0,0,0,0,0,0,0,0,0,0,0,0,0,0,0,0,0,0,0,0,0,0,0,0,0,0,0,0,0,0,0,0,0,0,0,0,0,0,0,0,0,0,0,0,0,0,0,0,0,0,0,0,0,0,0,0,0,0,0,0,0,0,0,0,0,0,0,0,0,0,0,0,0,0,0,0,0,0,0,0,0,0,0,0,0,0,0,0,0,0,0,0,0,0,0,0,0,0,0,0,0,0,0,0,0,0,0,0,0,0
0,0,0,0,0,0,0,0,0,0,0,0,0,0,0,0,0,0,0,0,0,0,0,0,0,0,0,0,0,0,0,0,0,0,0,0,0,0,0,0,0,0,0,0,0,0,0,0,0,0,0,0,0,0,0,0,0,0,0,0,0,0,0,0,0,0,0,0,0,0,0,0,0,0,0,0,0,0,0,0,0,0,0,0,0,0,0,0,0,0,0,0,0,0,0,0,0,0,0,0,0,0,0,0,0,0,0,0,0,0,0,0,0,0,0,0,0,0,0,0,0,0,0,0,0,0,0,0,0,0,8,32,51,60,63,68,73,74,74,75,77,79,83,85,86,85,83,85,88,89,88,89,89,90,92,94,97.00001,98.00001,99.00001,100,103,105,107,110,111,111,112,114,114,114,114,115,116,118,119,120,121,122,123,124,126,126,126,126,127,129,130,131,131,133,135,135,135,136,137,138,138,138,138,139,141,143,146,148,148,149,150,150,151,153,154,155,156,157,158,158,158,159,160,160,161,164,167,167,166,165,165,166,167,169,171,171,171,172,173,173,173,176,177,177,177,179,182,184,184,186,187,186,185,186,188,187,187,188,191,192,193,193,191,191,191,192,193,193,194,195,196,198,198,197,197,198,199,203,204,203,201,202,203,203,202,203,203,203,203,202,202,201,201,195,186,175,158,135,112,98.00001,88,83,83,80,79,78,79,79,78,79,80,81,84,86,90,93,96.00001,104,115,131,148,171,193,200,203,207,210,213,215,215,215,215,217,216,214,214,215,217,218,219,219,219,220,222,223,224,223,223,223,222,221,222,223,225,227,228,229,239,248,250,247,237,237,230,227,228,230,232,233,234,235,243,251,255,255,254,249,254,255,253,248,245,241,242,248,238,231,232,232,231,232,232,232,233,236,246,253,253,250,246,243,239,234,232,230,228,229,228,228,230,230,230,228,224,222,233,236,227,219,220,226,230,231,228,219,221,230,243,255,253,246,235,224,228,233,235,234,232,231,226,218,215,215,216,217,214,211,213,218,228,233,230,225,221,226,220,225,224,222,214,207,206,208,208,208,213,216,214,209,209,208,208,208,209,209,206,203,205,207,204,200,197,194,193,194,195,196,199,201,199,195,189,185,185,188,194,199,203,203,199,193,189,191,194,200,196,193,193,192,195,197,191,184,180,178,176,176,177,174,176,172,173,157,84,0,0,0,0,0,0,0,0,0,0,0,0,0,0,0,0,0,0,0,0,0,0,0,0,0,0,0,0,0,0,0,0,0,0,0,0,0,0,0,0,0,0,0,0,0,0,0,0,0,0,0,0,0,0,0,0,0,0,0,0,0,0,0,0,0,0,0,0,0,0,0,0,0,0,0,0,0,0,0,0,0,0,0,0,0,0,0,0,0,0,0,0,0,0,0,0,0,0,0,0,0,0,0,0,0,0,0,0,0,0,0,0,0,0,0,0,0,0,0,0
0,0,0,0,0,0,0,0,0,0,0,0,0,0,0,0,0,0,0,0,0,0,0,0,0,0,0,0,0,0,0,0,0,0,0,0,0,0,0,0,0,0,0,0,0,0,0,0,0,0,0,0,0,0,0,0,0,0,0,0,0,0,0,0,0,0,0,0,0,0,0,0,0,0,0,0,0,0,0,0,0,0,0,0,0,0,0,0,0,0,0,0,0,0,0,0,0,0,0,0,0,0,0,0,0,0,0,0,0,0,0,0,0,0,0,0,0,0,0,0,0,0,0,0,0,0,0,0,0,3,19,45,70,74,72,77,83,83,82,83,83,88,93,95,95,94,95,98.00001,101,100,98.00001,97.00001,98.00001,98.00001,100,101,105,106,107,109,112,114,118,120,122,123,124,125,123,123,123,124,124,126,129,129,130,131,134,134,134,135,135,137,135,136,137,138,141,143,144,144,143,144,145,146,146,146,148,148,150,152,154,156,157,158,159,160,160,161,162,164,165,167,167,167,167,168,168,168,169,171,174,175,175,175,176,177,177,180,181,181,180,182,183,185,185,185,188,187,185,187,190,193,196,197,199,200,199,200,201,200,198,200,202,204,207,206,202,199,197,199,202,202,201,203,205,209,211,210,209,210,210,210,213,212,209,210,211,211,211,212,212,213,213,213,212,212,212,207,199,187,171,144,117,100,89,86,84,82,79,79,81,81,82,83,83,85,88,92,95,98.00001,101,109,121,137,155,179,201,208,211,217,221,224,228,228,229,230,229,228,227,227,227,229,231,231,231,232,234,235,237,237,235,231,229,229,231,233,235,236,237,239,238,236,232,229,228,230,233,231,230,234,238,238,237,238,240,241,242,240,237,232,227,230,233,229,223,222,223,223,222,221,222,233,242,241,238,238,240,241,242,236,237,230,223,226,230,236,238,239,238,238,237,236,235,236,237,238,238,237,237,236,233,231,224,230,232,238,241,238,236,238,241,239,234,228,225,226,232,229,227,229,232,231,230,231,233,232,230,230,231,225,220,224,228,232,221,228,226,226,237,238,239,238,236,228,220,217,217,217,219,225,230,229,227,223,220,218,218,221,222,218,217,221,223,222,220,215,210,206,204,204,204,208,211,208,203,197,193,196,200,205,211,215,216,210,202,200,201,205,210,209,206,206,204,204,203,198,193,189,187,192,191,186,172,182,182,193,189,123,29,1,0,0,0,0,0,0,0,0,0,0,0,0,0,0,0,0,0,0,0,0,0,0,0,0,0,0,0,0,0,0,0,0,0,0,0,0,0,0,0,0,0,0,0,0,0,0,0,0,0,0,0,0,0,0,0,0,0,0,0,0,0,0,0,0,0,0,0,0,0,0,0,0,0,0,0,0,0,0,0,0,0,0,0,0,0,0,0,0,0,0,0,0,0,0,0,0,0,0,0,0,0,0,0,0,0,0,0,0,0,0,0,0,0,0,0,0,0,0
0,0,0,0,0,0,0,0,0,0,0,0,0,0,0,0,0,0,0,0,0,0,0,0,0,0,0,0,0,0,0,0,0,0,0,0,0,0,0,0,0,0,0,0,0,0,0,0,0,0,0,0,0,0,0,0,0,0,0,0,0,0,0,0,0,0,0,0,0,0,0,0,0,0,0,0,0,0,0,0,0,0,0,0,0,0,0,0,0,0,0,0,0,0,0,0,0,0,0,0,0,0,0,0,0,0,0,0,0,0,0,0,0,0,0,0,0,0,0,0,0,0,0,0,0,0,0,0,0,10,30,60,83,85,82,85,87,86,86,88,90,94,100,104,106,108,111,113,114,111,108,107,105,106,108,110,112,115,117,118,120,123,125,126,129,130,131,132,132,132,132,133,133,134,136,136,137,139,142,143,142,141,143,143,144,144,145,145,148,150,151,151,151,151,153,154,153,154,156,157,158,159,160,162,164,165,166,167,166,167,170,172,173,174,175,174,173,173,173,175,176,177,179,181,182,183,184,184,184,186,188,190,192,193,194,194,194,194,196,195,194,195,197,198,202,203,205,207,210,210,210,209,208,207,207,211,215,214,210,205,203,206,208,208,207,210,215,221,225,224,222,218,215,214,214,216,220,221,222,223,225,224,225,226,227,225,225,222,217,215,207,194,172,147,123,106,92,87,87,85,82,82,82,83,83,84,86,87,89,93,98.00001,101,104,114,128,149,169,190,205,211,216,222,227,233,238,241,245,247,248,249,248,247,246,247,249,251,252,254,255,255,255,255,255,247,239,241,247,252,255,254,252,253,244,211,177,168,172,187,204,228,242,250,251,247,242,245,245,229,210,191,176,174,176,174,172,172,160,171,170,160,171,184,203,229,249,250,245,247,248,252,247,210,171,162,169,188,206,229,247,251,252,250,247,246,245,246,249,251,253,255,254,233,214,223,243,246,242,240,240,252,255,255,255,215,181,165,170,207,242,228,207,206,210,209,213,236,255,255,251,251,251,242,235,238,236,223,208,210,219,246,255,255,251,249,247,241,235,230,227,228,232,234,236,239,240,235,231,226,224,229,234,233,232,234,237,244,249,246,238,226,215,213,215,215,216,215,214,213,211,213,217,219,220,220,220,218,215,213,214,217,220,217,212,213,211,208,207,206,204,198,193,200,203,181,143,182,198,203,196,165,121,37,0,0,0,0,0,0,0,0,0,0,0,0,0,0,0,0,0,0,0,0,0,0,0,0,0,0,0,0,0,0,0,0,0,0,0,0,0,0,0,0,0,0,0,0,0,0,0,0,0,0,0,0,0,0,0,0,0,0,0,0,0,0,0,0,0,0,0,0,0,0,0,0,0,0,0,0,0,0,0,0,0,0,0,0,0,0,0,0,0,0,0,0,0,0,0,0,0,0,0,0,0,0,0,0,0,0,0,0,0,0,0,0,0,0,0,0,0,0
0,0,0,0,0,0,0,0,0,0,0,0,0,0,0,0,0,0,0,0,0,0,0,0,0,0,0,0,0,0,0,0,0,0,0,0,0,0,0,0,0,0,0,0,0,0,0,0,0,0,0,0,0,0,0,0,0,0,0,0,0,0,0,0,0,0,0,0,0,0,0,0,0,0,0,0,0,0,0,0,0,0,0,0,0,0,0,0,0,0,0,0,0,0,0,0,0,0,0,0,0,0,0,0,0,0,0,0,0,0,0,0,0,0,0,0,0,0,0,0,0,0,0,0,0,0,0,0,4,22,42,72,97.00001,99.00001,93,93,94,94,93,96.00001,100,106,112,114,115,119,123,126,126,122,119,117,116,117,119,121,123,125,127,128,131,133,134,135,136,138,139,140,139,140,140,142,143,144,145,146,146,147,150,151,150,150,150,152,154,154,154,155,156,159,159,160,159,160,161,162,164,165,166,166,167,167,168,170,173,174,175,176,176,179,180,182,182,184,184,184,182,181,182,185,186,187,188,190,191,193,194,194,194,196,198,201,204,205,204,206,207,207,207,207,206,207,208,209,210,211,214,217,219,220,220,219,218,217,217,224,230,230,229,225,220,223,225,223,221,223,229,233,235,232,228,229,230,230,230,233,236,237,235,236,238,236,236,237,237,238,235,232,228,226,219,200,177,151,128,109,94,90,90,88,85,84,85,86,87,88,89,90,94,98.00001,102,105,108,121,135,145,157,182,203,210,213,222,229,232,232,233,237,233,227,228,228,227,225,226,227,229,232,235,239,239,235,243,238,211,186,194,210,222,231,232,227,213,190,143,83,72,78,97.00001,124,170,191,197,197,193,189,192,190,171,144,98.00001,77,77,80,79,76,74,72,75,78,78,81,96.00001,126,174,192,195,191,194,197,197,190,147,77,71,79,96.00001,122,166,179,194,198,199,197,196,191,190,193,203,214,224,219,180,126,169,192,194,188,189,184,216,235,236,215,164,85,65,74,116,188,176,140,127,151,119,131,192,234,236,227,223,215,201,175,180,183,162,146,126,151,207,240,243,242,240,239,243,246,242,235,237,238,238,236,235,232,235,236,237,238,238,242,241,239,233,230,231,231,232,234,234,230,228,224,224,228,228,228,226,225,227,229,231,232,231,229,228,227,227,225,228,231,232,231,228,224,220,218,220,220,214,209,214,215,196,182,196,215,218,212,209,185,103,0,0,1,0,0,0,0,0,0,0,0,0,0,0,0,0,0,0,0,0,0,0,0,0,0,0,0,0,0,0,0,0,0,0,0,0,0,0,0,0,0,0,0,0,0,0,0,0,0,0,0,0,0,0,0,0,0,0,0,0,0,0,0,0,0,0,0,0,0,0,0,0,0,0,0,0,0,0,0,0,0,0,0,0,0,0,0,0,0,0,0,0,0,0,0,0,0,0,0,0,0,0,0,0,0,0,0,0,0,0,0,0,0,0,0,0,0,0
0,0,0,0,0,0,0,0,0,0,0,0,0,0,0,0,0,0,0,0,0,0,0,0,0,0,0,0,0,0,0,0,0,0,0,0,0,0,0,0,0,0,0,0,0,0,0,0,0,0,0,0,0,0,0,0,0,0,0,0,0,0,0,0,0,0,0,0,0,0,0,0,0,0,0,0,0,0,0,0,0,0,0,0,0,0,0,0,0,0,0,0,0,0,0,0,0,0,0,0,0,0,0,0,0,0,0,0,0,0,0,0,0,0,0,0,0,0,0,0,0,0,0,0,0,0,0,5,20,36,45,79,106,109,104,103,101,102,103,106,112,117,121,121,119,124,129,133,133,131,127,125,125,125,128,129,130,132,134,136,138,139,140,142,142,143,144,145,144,146,148,150,150,152,153,154,154,155,155,156,157,158,158,159,160,161,162,163,164,165,165,166,166,168,170,172,172,173,173,173,171,173,175,177,179,182,184,185,187,187,188,189,190,191,192,192,191,191,192,193,195,195,196,199,201,201,201,200,202,204,206,209,210,211,212,214,216,216,217,216,215,216,217,218,220,221,223,223,225,228,231,229,229,230,232,239,245,251,254,250,245,246,248,247,244,243,247,248,245,241,236,247,252,255,255,255,255,255,255,255,252,248,246,248,250,247,246,248,247,238,222,207,183,155,125,109,98.00001,93,93,90,87,87,87,88,90,90,91,93,97.00001,101,105,110,116,129,140,126,120,160,202,207,204,217,225,223,216,214,210,189,177,176,177,175,173,173,173,175,176,181,182,177,178,182,180,134,62,72,107,154,172,177,168,133,67,40,14,10,20,32,45,55,64,65,63,63,64,65,64,54,39,29,19,15,15,17,21,22,21,20,19,21,27,37,49,59,65,64,61,66,70,70,61,42,21,16,17,23,34,46,54,68,69,71,71,69,68,61,61,83,105,145,102,101,41,51,65,65,62,58,60,109,170,164,130,62,13,3,16,40,64,57,45,44,45,42,44,96.00001,170,184,174,152,115,101,57,54,61,47,41,55,85,144,175,193,214,212,212,234,255,254,247,245,243,245,237,221,207,222,249,255,255,252,248,244,246,225,211,185,169,182,213,234,252,242,228,231,235,246,248,242,235,242,248,239,238,242,248,241,241,245,239,241,247,253,255,247,237,234,235,237,238,235,233,226,224,214,207,219,230,232,231,241,229,142,17,0,2,0,0,0,0,0,0,0,0,0,0,0,0,0,0,0,0,0,0,0,0,0,0,0,0,0,0,0,0,0,0,0,0,0,0,0,0,0,0,0,0,0,0,0,0,0,0,0,0,0,0,0,0,0,0,0,0,0,0,0,0,0,0,0,0,0,0,0,0,0,0,0,0,0,0,0,0,0,0,0,0,0,0,0,0,0,0,0,0,0,0,0,0,0,0,0,0,0,0,0,0,0,0,0,0,0,0,0,0,0,0,0,0,0,0,0
0,0,0,0,0,0,0,0,0,0,0,0,0,0,0,0,0,0,0,0,0,0,0,0,0,0,0,0,0,0,0,0,0,0,0,0,0,0,0,0,0,0,0,0,0,0,0,0,0,0,0,0,0,0,0,0,0,0,0,0,0,0,0,0,0,0,0,0,0,0,0,0,0,0,0,0,0,0,0,0,0,0,0,0,0,0,0,0,0,0,0,0,0,0,0,0,0,0,0,0,0,0,0,0,0,0,0,0,0,0,0,0,0,0,0,0,0,0,0,0,0,0,0,0,0,0,3,23,43,54,63,76,112,116,113,113,111,112,115,118,122,128,131,130,130,135,141,141,139,138,136,135,134,135,136,137,138,140,142,144,147,150,151,150,150,151,152,152,152,154,157,158,159,162,163,163,164,164,164,165,166,168,167,167,169,170,170,171,173,174,175,176,175,178,180,182,182,181,181,182,181,181,182,185,187,191,194,195,195,195,197,198,197,198,201,201,201,201,202,203,205,206,208,211,213,214,214,212,213,215,218,218,219,223,227,232,235,234,231,231,230,232,233,233,234,236,237,237,238,241,243,241,237,239,240,237,234,232,233,230,228,229,227,225,224,219,217,205,193,182,187,192,233,238,238,231,222,218,215,209,212,210,209,202,194,190,193,202,219,226,225,206,187,158,129,113,102,98.00001,97.00001,95,92,92,92,93,93,94,95,97.00001,100,103,106,113,119,133,140,122,92,134,184,197,195,218,231,203,171,138,146,99.00001,84,83,85,82,79,79,80,82,84,87,92,84,81,90,88,45,4,17,41,68,82,88,82,48,9,0,0,0,1,5,10,12,10,6,4,7,10,8,4,4,3,1,0,0,0,0,1,2,3,2,2,3,6,10,14,12,9,9,10,13,14,13,7,3,0,0,0,0,0,0,2,6,15,20,19,14,12,4,3,24,44,47,42,21,2,1,5,7,7,2,9,46,79,71,45,14,0,0,0,0,6,8,7,4,5,0,1,42,83,89,82,65,36,17,3,1,5,2,0,7,27,51,78,102,147,124,146,146,196,197,192,190,186,189,186,166,123,164,190,209,215,205,191,191,190,175,154,99.00001,79,89,121,189,229,236,234,236,232,221,212,196,186,191,205,227,245,241,237,225,203,193,191,187,194,214,231,234,231,237,241,237,231,228,228,227,232,232,233,241,246,247,244,242,224,170,107,31,3,0,0,0,0,0,0,0,0,0,0,0,0,0,0,0,0,0,0,0,0,0,0,0,0,0,0,0,0,0,0,0,0,0,0,0,0,0,0,0,0,0,0,0,0,0,0,0,0,0,0,0,0,0,0,0,0,0,0,0,0,0,0,0,0,0,0,0,0,0,0,0,0,0,0,0,0,0,0,0,0,0,0,0,0,0,0,0,0,0,0,0,0,0,0,0,0,0,0,0,0,0,0,0,0,0,0,0,0,0,0,0,0,0,0,0
0,0,0,0,0,0,0,0,0,0,0,0,0,0,0,0,0,0,0,0,0,0,0,0,0,0,0,0,0,0,0,0,0,0,0,0,0,0,0,0,0,0,0,0,0,0,0,0,0,0,0,0,0,0,0,0,0,0,0,0,0,0,0,0,0,0,0,0,0,0,0,0,0,0,0,0,0,0,0,0,0,0,0,0,0,0,0,0,0,0,0,0,0,0,0,0,0,0,0,0,0,0,0,0,0,0,0,0,0,0,0,0,0,0,0,0,0,0,0,0,0,0,0,0,0,4,14,43,65,68,55,84,112,117,123,123,121,122,124,127,130,134,138,139,142,148,151,146,139,139,141,141,141,142,144,145,146,147,148,150,153,155,158,157,156,156,158,159,160,162,164,164,164,168,170,170,171,172,173,174,175,175,174,175,175,176,177,178,179,182,183,184,184,186,187,188,190,189,189,190,191,191,191,192,193,198,201,202,202,202,202,203,205,206,207,207,208,208,209,211,213,214,217,220,223,225,226,225,224,226,227,226,228,238,249,255,255,255,252,251,250,254,255,254,252,253,255,255,255,255,255,255,250,246,241,225,206,188,175,177,179,171,170,171,173,162,150,106,57,48,55,102,175,188,181,161,143,109,110,132,105,133,131,82,59,55,68,102,172,198,214,208,191,160,135,117,107,101,100,98.00001,95,95,95,95,96.00001,97.00001,99.00001,101,103,105,108,112,118,129,137,131,128,145,170,180,192,230,250,191,118,65,41,33,23,22,23,20,17,20,22,22,23,25,30,30,24,25,25,17,9,8,16,16,24,29,30,23,16,14,16,21,27,28,29,29,25,21,16,23,27,19,12,13,17,21,24,23,21,21,23,25,29,31,34,34,33,31,30,27,27,27,28,25,24,25,28,22,17,17,19,21,24,20,22,19,29,30,28,25,21,20,17,17,17,15,17,15,13,14,15,16,19,22,24,24,27,29,28,16,7,16,19,16,15,21,25,25,22,19,17,24,28,28,28,22,15,14,16,17,17,19,17,12,7,6,14,31,41,44,41,55,65,65,63,64,65,66,63,52,43,57,62,91,108,114,62,61,63,57,44,24,16,10,44,94,174,220,248,237,206,175,135,83,64,71,107,195,255,246,218,175,133,80,63,58,61,113,170,195,214,235,249,234,214,204,202,220,240,248,253,255,255,255,246,206,172,179,177,75,2,0,0,0,0,0,0,0,0,0,0,0,0,0,0,0,0,0,0,0,0,0,0,0,0,0,0,0,0,0,0,0,0,0,0,0,0,0,0,0,0,0,0,0,0,0,0,0,0,0,0,0,0,0,0,0,0,0,0,0,0,0,0,0,0,0,0,0,0,0,0,0,0,0,0,0,0,0,0,0,0,0,0,0,0,0,0,0,0,0,0,0,0,0,0,0,0,0,0,0,0,0,0,0,0,0,0,0,0,0,0,0,0,0,0,0
0,0,0,0,0,0,0,0,0,0,0,0,0,0,0,0,0,0,0,0,0,0,0,0,0,0,0,0,0,0,0,0,0,0,0,0,0,0,0,0,0,0,0,0,0,0,0,0,0,0,0,0,0,0,0,0,0,0,0,0,0,0,0,0,0,0,0,0,0,0,0,0,0,0,0,0,0,0,0,0,0,0,0,0,0,0,0,0,0,0,0,0,0,0,0,0,0,0,0,0,0,0,0,0,0,0,0,0,0,0,0,0,0,0,0,0,0,0,0,0,0,0,0,0,0,8,39,82,107,101,86,85,120,121,127,130,128,129,130,132,136,138,142,146,151,157,160,154,148,149,152,152,151,152,153,153,154,155,156,158,160,164,165,166,167,167,168,169,169,170,172,172,173,176,179,179,180,181,183,183,184,185,185,185,184,185,188,189,191,192,190,192,194,197,199,198,198,197,197,199,201,202,203,202,203,206,210,209,209,211,215,216,217,219,222,222,223,223,226,228,230,230,231,234,236,239,240,239,237,240,242,239,232,229,227,232,235,231,228,229,228,221,216,220,228,231,233,227,219,218,215,205,194,192,186,168,140,95,80,78,84,79,77,80,77,75,60,27,1,0,1,44,85,95,87,69,50,45,47,43,46,43,40,21,0,0,8,48,83,117,148,196,197,170,139,121,111,106,103,100,97.00001,97.00001,98.00001,96.00001,97.00001,99.00001,101,103,105,107,109,112,118,124,133,139,142,148,150,150,157,199,221,147,41,14,2,2,1,1,2,2,0,0,2,2,2,3,4,3,5,3,3,12,27,13,8,4,4,6,10,20,25,30,35,39,42,41,37,37,35,31,28,32,33,27,21,23,29,33,37,39,37,37,37,41,45,48,50,49,46,43,40,37,37,40,41,37,32,35,39,37,34,34,35,35,37,32,29,33,39,40,37,33,30,29,28,20,8,10,8,17,25,25,25,27,28,32,31,19,7,8,16,23,30,35,36,31,24,30,36,37,34,33,29,17,8,6,6,5,6,14,22,28,30,31,30,20,7,1,0,0,4,3,2,3,6,3,3,5,8,8,6,4,7,2,6,29,46,25,1,3,6,5,4,0,0,0,0,37,87,137,189,183,144,83,42,14,6,12,47,108,193,189,150,85,45,21,6,2,9,41,80,109,146,187,193,175,151,116,113,160,192,212,228,239,237,234,216,156,80,124,188,116,2,0,0,0,0,0,0,0,0,0,0,0,0,0,0,0,0,0,0,0,0,0,0,0,0,0,0,0,0,0,0,0,0,0,0,0,0,0,0,0,0,0,0,0,0,0,0,0,0,0,0,0,0,0,0,0,0,0,0,0,0,0,0,0,0,0,0,0,0,0,0,0,0,0,0,0,0,0,0,0,0,0,0,0,0,0,0,0,0,0,0,0,0,0,0,0,0,0,0,0,0,0,0,0,0,0,0,0,0,0,0,0,0,0,0,0
0,0,0,0,0,0,0,0,0,0,0,0,0,0,0,0,0,0,0,0,0,0,0,0,0,0,0,0,0,0,0,0,0,0,0,0,0,0,0,0,0,0,0,0,0,0,0,0,0,0,0,0,0,0,0,0,0,0,0,0,0,0,0,0,0,0,0,0,0,0,0,0,0,0,0,0,0,0,0,0,0,0,0,0,0,0,0,0,0,0,0,0,0,0,0,0,0,0,0,0,0,0,0,0,0,0,0,0,0,0,0,0,0,0,0,0,0,0,0,0,0,0,0,0,0,19,62,107,128,133,126,132,132,125,126,129,128,130,132,134,137,138,139,145,151,158,162,162,159,161,163,161,158,159,159,160,159,162,162,166,169,170,171,175,177,178,178,178,177,180,182,182,182,183,185,184,185,186,187,188,186,191,196,195,192,194,197,200,202,198,194,197,203,210,214,210,205,204,204,206,207,209,210,212,212,214,215,213,212,219,225,228,230,233,237,238,237,240,244,247,255,253,250,253,255,255,255,255,253,255,255,255,241,203,176,172,176,175,173,176,173,146,119,124,167,181,173,151,137,106,104,112,63,64,66,53,39,29,23,16,17,20,20,23,24,21,17,10,7,6,7,20,30,29,25,21,17,17,17,16,15,16,16,10,6,10,17,24,25,58,98.00001,172,203,177,141,125,113,107,104,101,99.00001,97.00001,96.00001,95,95,97.00001,99.00001,101,103,107,109,112,115,122,130,143,150,139,132,102,85,119,169,115,22,14,16,17,24,29,32,31,29,30,31,31,31,30,29,29,32,31,30,33,34,32,32,33,34,36,37,40,41,42,42,43,44,42,42,42,41,39,36,36,36,35,35,35,35,35,36,39,40,40,41,45,49,49,50,49,48,48,47,46,47,50,51,50,48,47,47,48,46,43,40,40,41,39,37,43,49,50,49,46,43,40,36,32,30,28,28,34,36,36,35,37,40,42,41,36,32,30,30,36,42,43,42,39,35,37,41,43,43,43,41,37,32,30,28,25,22,27,30,32,34,37,37,35,31,27,23,23,20,21,20,20,21,17,16,15,15,17,17,15,13,14,14,21,25,19,13,20,24,24,22,20,15,12,10,17,29,50,64,53,36,25,16,4,0,6,23,43,57,55,47,35,23,17,16,15,14,16,23,55,83,105,64,50,40,34,37,49,68,105,171,172,175,177,168,77,10,57,127,55,4,0,0,0,0,0,0,0,0,0,0,0,0,0,0,0,0,0,0,0,0,0,0,0,0,0,0,0,0,0,0,0,0,0,0,0,0,0,0,0,0,0,0,0,0,0,0,0,0,0,0,0,0,0,0,0,0,0,0,0,0,0,0,0,0,0,0,0,0,0,0,0,0,0,0,0,0,0,0,0,0,0,0,0,0,0,0,0,0,0,0,0,0,0,0,0,0,0,0,0,0,0,0,0,0,0,0,0,0,0,0,0,0,0,0,0
0,0,0,0,0,0,0,0,0,0,0,0,0,0,0,0,0,0,0,0,0,0,0,0,0,0,0,0,0,0,0,0,0,0,0,0,0,0,0,0,0,0,0,0,0,0,0,0,0,0,0,0,0,0,0,0,0,0,0,0,0,0,0,0,0,0,0,0,0,0,0,0,0,0,0,0,0,0,0,0,0,0,0,0,0,0,0,0,0,0,0,0,0,0,0,0,0,0,0,0,0,0,0,0,0,0,0,0,0,0,0,0,0,0,0,0,0,0,0,0,0,0,0,0,0,33,97.00001,131,148,152,153,139,135,132,133,135,138,139,140,142,144,144,145,149,155,162,167,170,170,172,174,171,170,170,170,170,170,171,174,176,180,180,180,185,189,190,190,188,187,189,192,191,190,192,193,193,193,193,193,195,197,201,207,206,204,206,210,216,221,217,212,213,217,224,227,220,213,212,214,220,224,228,230,229,227,229,231,229,227,233,239,237,236,239,244,246,244,233,223,228,235,229,228,230,234,234,232,223,213,230,237,220,180,142,83,75,79,82,87,86,84,58,36,58,86,87,83,65,45,43,46,28,6,8,10,6,3,1,0,0,0,0,0,0,2,2,3,8,15,16,15,9,4,2,2,3,7,8,10,8,7,7,8,10,15,21,24,10,4,16,43,128,211,188,148,129,119,110,106,102,101,98.00001,95,94,96.00001,98.00001,100,102,105,109,111,114,117,125,133,152,163,149,101,89,42,86,82,54,27,25,29,36,42,48,51,51,50,50,50,50,49,48,48,47,48,49,49,49,48,48,48,52,54,55,55,55,54,53,52,52,51,50,50,50,50,49,48,47,46,47,49,48,46,44,43,44,46,47,49,52,58,57,55,55,54,55,55,57,58,59,63,62,61,60,59,60,60,54,49,49,50,49,49,53,59,61,60,58,54,51,48,47,46,46,44,47,49,49,48,51,52,52,53,51,49,47,46,50,52,50,49,49,47,47,48,50,53,54,53,52,49,48,46,40,36,39,42,43,42,45,46,48,49,48,46,43,37,37,36,34,33,30,28,25,23,24,25,27,25,25,24,20,19,19,23,30,34,35,33,32,31,25,20,9,2,5,9,2,0,2,5,4,3,6,10,6,2,2,3,6,9,17,23,24,20,6,0,17,39,24,9,0,0,0,1,2,10,45,74,82,78,89,84,54,0,10,47,29,2,0,0,0,0,0,0,0,0,0,0,0,0,0,0,0,0,0,0,0,0,0,0,0,0,0,0,0,0,0,0,0,0,0,0,0,0,0,0,0,0,0,0,0,0,0,0,0,0,0,0,0,0,0,0,0,0,0,0,0,0,0,0,0,0,0,0,0,0,0,0,0,0,0,0,0,0,0,0,0,0,0,0,0,0,0,0,0,0,0,0,0,0,0,0,0,0,0,0,0,0,0,0,0,0,0,0,0,0,0,0,0,0,0,0,0
0,0,0,0,0,0,0,0,0,0,0,0,0,0,0,0,0,0,0,0,0,0,0,0,0,0,0,0,0,0,0,0,0,0,0,0,0,0,0,0,0,0,0,0,0,0,0,0,0,0,0,0,0,0,0,0,0,0,0,0,0,0,0,0,0,0,0,0,0,0,0,0,0,0,0,0,0,0,0,0,0,0,0,0,0,0,0,0,0,0,0,0,0,0,0,0,0,0,0,0,0,0,0,0,0,0,0,0,0,0,0,0,0,0,0,0,0,0,0,0,0,0,0,0,4,55,118,143,154,148,131,129,125,134,139,145,151,152,151,153,154,155,156,157,161,167,173,175,176,177,179,179,177,178,181,180,179,181,183,186,190,189,189,192,196,198,199,198,197,198,199,199,197,201,202,202,200,200,200,201,205,210,215,214,213,216,219,230,241,243,242,238,234,232,231,224,218,222,229,240,249,254,255,251,250,250,253,253,252,253,254,244,237,241,247,250,244,209,172,172,172,175,177,177,182,180,173,150,107,167,179,139,62,41,22,17,20,27,29,27,23,19,17,23,28,27,28,20,13,19,20,14,21,21,22,21,17,19,20,20,19,19,20,21,22,23,25,23,22,24,24,25,24,25,25,25,27,29,33,31,29,29,29,28,28,30,31,25,22,21,33,116,226,201,154,135,123,115,108,105,102,99.00001,97.00001,97.00001,98.00001,100,103,105,109,112,117,119,122,130,140,166,179,158,130,95,36,37,42,43,50,46,40,45,50,55,59,60,59,59,59,58,57,58,57,58,57,57,55,58,58,58,58,61,63,64,65,64,64,63,62,62,61,61,61,61,61,59,58,58,58,58,58,57,55,54,53,53,53,54,58,61,66,65,65,65,66,65,64,65,65,67,69,69,68,67,67,68,68,63,58,59,60,61,61,63,66,67,66,64,62,60,59,59,59,58,58,59,60,61,61,61,61,61,61,60,59,59,59,59,58,59,59,59,59,58,55,58,61,61,60,60,59,57,55,50,46,45,47,49,50,52,54,57,60,60,57,53,50,49,49,46,44,41,41,37,35,36,37,39,37,37,35,32,33,34,35,40,42,42,41,39,35,31,28,22,20,25,30,22,15,20,24,24,24,22,20,21,23,22,20,19,19,25,31,33,32,21,8,13,17,17,17,23,12,13,16,17,21,27,32,29,23,35,37,22,3,5,10,5,3,0,0,0,0,0,0,0,0,0,0,0,0,0,0,0,0,0,0,0,0,0,0,0,0,0,0,0,0,0,0,0,0,0,0,0,0,0,0,0,0,0,0,0,0,0,0,0,0,0,0,0,0,0,0,0,0,0,0,0,0,0,0,0,0,0,0,0,0,0,0,0,0,0,0,0,0,0,0,0,0,0,0,0,0,0,0,0,0,0,0,0,0,0,0,0,0,0,0,0,0,0,0,0,0,0,0,0,0,0,0,0,0,0,0,0
0,0,0,0,0,0,0,0,0,0,0,0,0,0,0,0,0,0,0,0,0,0,0,0,0,0,0,0,0,0,0,0,0,0,0,0,0,0,0,0,0,0,0,0,0,0,0,0,0,0,0,0,0,0,0,0,0,0,0,0,0,0,0,0,0,0,0,0,0,0,0,0,0,0,0,0,0,0,0,0,0,0,0,0,0,0,0,0,0,0,0,0,0,0,0,0,0,0,0,0,0,0,0,0,0,0,0,0,0,0,0,0,0,0,0,0,0,0,0,0,0,0,0,22,53,108,144,151,162,151,117,135,132,141,150,156,161,162,162,163,164,165,166,169,173,178,180,182,183,185,186,188,188,190,192,192,191,192,196,199,201,201,200,202,205,207,210,210,209,208,207,208,208,210,211,212,213,216,218,221,224,230,232,231,229,228,228,234,240,233,225,234,242,244,243,238,234,235,235,232,229,232,233,230,227,230,231,231,233,232,229,207,185,183,181,186,186,146,89,77,81,76,81,86,89,84,80,55,47,66,90,52,12,1,0,0,0,2,5,4,2,5,9,7,3,3,3,4,7,14,17,21,23,25,27,30,30,32,33,34,34,34,35,34,36,37,37,34,31,33,35,37,37,40,42,41,41,44,47,46,43,44,44,42,40,39,37,41,41,27,29,106,197,198,164,145,129,119,113,107,105,102,100,99.00001,99.00001,102,106,108,111,116,121,124,127,139,154,169,172,145,84,58,36,24,24,42,64,62,55,59,64,66,69,70,69,70,69,68,66,68,69,67,66,67,67,68,67,67,68,71,73,75,76,75,74,72,71,70,70,71,71,72,71,71,71,71,71,71,71,70,68,67,65,63,62,64,67,70,73,74,72,73,74,73,72,72,72,74,76,77,76,77,77,77,76,73,70,69,72,72,72,73,74,75,75,72,70,69,69,71,73,71,71,71,73,73,74,73,71,72,71,70,71,71,72,71,70,70,70,69,69,68,67,69,70,70,68,69,70,68,66,63,61,59,59,58,58,60,62,67,71,71,70,67,63,63,62,59,57,55,57,51,50,50,51,52,53,53,50,48,47,48,49,51,51,52,51,49,46,42,40,37,39,43,45,37,32,35,40,41,40,34,30,32,36,36,34,32,30,35,41,41,40,31,20,16,10,17,22,22,22,28,32,33,32,21,7,3,2,3,7,14,19,12,4,2,2,1,0,0,0,0,0,0,0,0,0,0,0,0,0,0,0,0,0,0,0,0,0,0,0,0,0,0,0,0,0,0,0,0,0,0,0,0,0,0,0,0,0,0,0,0,0,0,0,0,0,0,0,0,0,0,0,0,0,0,0,0,0,0,0,0,0,0,0,0,0,0,0,0,0,0,0,0,0,0,0,0,0,0,0,0,0,0,0,0,0,0,0,0,0,0,0,0,0,0,0,0,0,0,0,0,0,0,0,0,0,0,0,0,0,0
0,0,0,0,0,0,0,0,0,0,0,0,0,0,0,0,0,0,0,0,0,0,0,0,0,0,0,0,0,0,0,0,0,0,0,0,0,0,0,0,0,0,0,0,0,0,0,0,0,0,0,0,0,0,0,0,0,0,0,0,0,0,0,0,0,0,0,0,0,0,0,0,0,0,0,0,0,0,0,0,0,0,0,0,0,0,0,0,0,0,0,0,0,0,0,0,0,0,0,0,0,0,0,0,0,0,0,0,0,0,0,0,0,0,0,0,0,0,0,0,0,0,0,57,131,160,160,166,168,157,146,145,148,153,160,164,166,168,168,168,170,171,173,180,185,188,191,191,191,193,194,194,194,195,199,200,202,204,206,208,210,209,208,209,212,215,218,220,220,218,216,217,217,218,220,223,228,238,245,247,248,252,255,250,245,247,244,236,221,194,173,206,248,255,255,255,255,254,244,209,175,172,176,175,173,173,172,175,177,182,178,134,73,55,60,66,66,43,20,17,22,25,24,25,24,25,22,14,8,20,32,31,28,24,20,19,17,22,27,25,23,25,25,28,29,24,22,24,29,33,37,31,27,29,34,37,42,41,41,40,39,40,41,42,42,41,41,40,39,42,45,45,47,48,49,49,49,52,54,53,51,52,53,50,48,48,49,49,47,40,44,88,138,181,181,159,134,122,117,112,107,104,103,102,102,104,107,110,114,119,125,126,129,150,170,167,149,90,52,50,49,47,49,54,66,69,69,74,76,77,76,76,76,76,76,75,75,75,76,74,74,74,74,74,73,73,75,77,80,83,85,83,81,79,78,77,76,78,78,78,78,79,81,81,81,82,82,80,77,75,72,70,68,70,73,77,80,79,76,76,77,78,78,78,78,78,80,82,82,83,84,83,81,79,79,80,83,82,80,81,81,81,80,77,76,75,76,80,83,82,81,82,83,81,80,80,81,80,79,78,79,80,81,80,79,78,81,80,78,77,76,76,76,76,76,77,78,77,75,74,72,71,69,67,64,63,64,72,80,80,76,75,72,70,69,69,69,67,67,66,64,64,65,65,65,65,64,63,61,62,63,62,63,63,62,61,59,54,51,54,58,60,59,52,44,45,47,46,43,42,40,41,41,44,46,44,42,43,45,45,42,36,30,28,24,29,32,33,33,39,45,50,51,40,28,24,24,23,13,20,25,27,25,19,7,1,0,0,0,0,0,0,0,0,0,0,0,0,0,0,0,0,0,0,0,0,0,0,0,0,0,0,0,0,0,0,0,0,0,0,0,0,0,0,0,0,0,0,0,0,0,0,0,0,0,0,0,0,0,0,0,0,0,0,0,0,0,0,0,0,0,0,0,0,0,0,0,0,0,0,0,0,0,0,0,0,0,0,0,0,0,0,0,0,0,0,0,0,0,0,0,0,0,0,0,0,0,0,0,0,0,0,0,0,0,0,0,0,0,0
0,0,0,0,0,0,0,0,0,0,0,0,0,0,0,0,0,0,0,0,0,0,0,0,0,0,0,0,0,0,0,0,0,0,0,0,0,0,0,0,0,0,0,0,0,0,0,0,0,0,0,0,0,0,0,0,0,0,0,0,0,0,0,0,0,0,0,0,0,0,0,0,0,0,0,0,0,0,0,0,0,0,0,0,0,0,0,0,0,0,0,0,0,0,0,0,0,0,0,0,0,0,0,0,0,0,0,0,0,0,0,0,0,0,0,0,0,0,0,0,0,0,10,95,181,185,175,175,175,156,143,153,164,169,171,174,177,176,176,178,179,180,183,191,198,200,200,201,200,202,204,203,201,203,207,209,211,216,219,220,220,219,218,220,222,224,226,232,235,232,230,231,233,235,235,229,224,225,227,228,232,233,235,224,211,202,192,185,174,107,89,117,191,220,240,243,235,217,189,146,83,75,79,83,87,84,79,84,87,92,87,49,7,1,2,8,8,2,0,0,2,3,4,4,4,3,2,2,2,2,6,22,35,39,36,36,35,37,40,40,39,37,36,40,44,41,40,41,42,47,48,42,36,37,42,47,50,50,50,49,48,49,50,50,51,50,49,50,51,54,58,58,58,59,60,60,60,61,63,62,62,63,64,63,61,61,61,60,59,54,58,68,94,152,184,165,138,127,121,117,111,108,107,106,106,108,111,113,117,122,127,129,136,163,181,156,116,59,41,46,65,65,68,69,71,76,80,83,86,86,86,86,87,87,87,86,85,85,85,85,85,85,83,83,84,84,86,89,92,96.00001,99.00001,96.00001,92,90,88,86,85,87,89,89,90,92,94,94,95,97.00001,98.00001,95,90,87,85,82,80,81,84,87,88,87,85,85,86,87,88,88,88,88,87,90,92,94,94,93,92,91,91,92,95,94,92,91,90,89,88,87,86,85,86,89,93,93,91,93,94,93,92,91,91,90,89,88,89,91,92,91,91,92,91,90,89,89,89,87,85,85,85,86,87,87,85,88,88,84,82,79,75,72,73,81,89,90,87,85,84,80,79,79,79,79,78,78,77,77,77,77,77,77,77,75,73,73,74,75,74,73,72,72,71,68,66,68,72,73,71,66,61,59,59,58,55,52,50,50,51,55,59,57,54,53,52,51,49,46,42,39,37,39,41,45,48,51,54,58,55,46,35,36,37,31,23,30,36,41,40,30,14,4,0,0,0,0,0,0,0,0,0,0,0,0,0,0,0,0,0,0,0,0,0,0,0,0,0,0,0,0,0,0,0,0,0,0,0,0,0,0,0,0,0,0,0,0,0,0,0,0,0,0,0,0,0,0,0,0,0,0,0,0,0,0,0,0,0,0,0,0,0,0,0,0,0,0,0,0,0,0,0,0,0,0,0,0,0,0,0,0,0,0,0,0,0,0,0,0,0,0,0,0,0,0,0,0,0,0,0,0,0,0,0,0,0,0
0,0,0,0,0,0,0,0,0,0,0,0,0,0,0,0,0,0,0,0,0,0,0,0,0,0,0,0,0,0,0,0,0,0,0,0,0,0,0,0,0,0,0,0,0,0,0,0,0,0,0,0,0,0,0,0,0,0,0,0,0,0,0,0,0,0,0,0,0,0,0,0,0,0,0,0,0,0,0,0,0,0,0,0,0,0,0,0,0,0,0,0,0,0,0,0,0,0,0,0,0,0,0,0,0,0,0,0,0,0,0,0,0,0,0,0,0,0,0,0,0,8,51,124,184,189,183,182,178,148,119,131,178,180,178,180,185,184,183,184,185,187,189,197,205,207,207,208,209,210,211,210,209,211,213,215,218,224,227,226,225,224,223,228,233,233,235,243,251,251,248,250,255,255,254,232,205,185,170,168,162,181,180,162,131,81,64,75,108,57,16,33,58,120,180,188,177,132,67,32,22,17,20,25,29,28,27,28,28,29,30,22,9,10,10,14,16,20,24,25,27,25,25,27,29,28,27,27,29,28,27,32,41,45,46,46,45,45,45,44,45,43,42,45,50,51,52,51,51,52,53,52,49,50,51,54,57,55,57,57,59,58,57,57,57,58,59,62,65,67,68,69,68,68,68,67,66,66,67,69,70,72,73,74,73,71,68,67,66,67,67,53,55,98.00001,168,164,145,134,125,121,116,115,113,110,109,111,114,116,121,124,128,133,142,171,183,129,51,47,58,64,72,77,78,81,83,82,80,86,91,94,94,95,96.00001,96.00001,96.00001,96.00001,96.00001,96.00001,96.00001,95,94,93,93,93,93,94,95,98.00001,102,106,108,106,102,99.00001,96.00001,94,93,95,97.00001,98.00001,100,103,105,105,106,109,110,105,98.00001,96.00001,95,92,88,89,91,95,97.00001,95,92,93,95,97.00001,97.00001,99.00001,99.00001,98.00001,97.00001,100,103,104,104,103,100,100,100,102,104,103,102,101,100,100,100,99.00001,97.00001,95,94,96.00001,98.00001,97.00001,98.00001,99.00001,101,101,99.00001,101,100,99.00001,98.00001,96.00001,97.00001,99.00001,99.00001,101,101,100,100,100,100,100,98.00001,95,91,90,92,93,94,95,96.00001,100,102,97.00001,91,87,84,83,85,91,94,96.00001,96.00001,94,91,89,88,87,85,84,84,85,85,86,88,86,85,84,85,83,80,82,82,81,81,80,79,79,79,78,77,78,79,80,80,78,73,68,65,66,67,63,59,60,61,65,68,66,63,60,60,58,57,53,49,48,47,46,47,55,62,60,57,52,48,37,30,35,41,39,35,41,44,48,48,36,19,10,4,0,0,0,0,0,0,0,0,0,0,0,0,0,0,0,0,0,0,0,0,0,0,0,0,0,0,0,0,0,0,0,0,0,0,0,0,0,0,0,0,0,0,0,0,0,0,0,0,0,0,0,0,0,0,0,0,0,0,0,0,0,0,0,0,0,0,0,0,0,0,0,0,0,0,0,0,0,0,0,0,0,0,0,0,0,0,0,0,0,0,0,0,0,0,0,0,0,0,0,0,0,0,0,0,0,0,0,0,0,0,0,0,0
0,0,0,0,0,0,0,0,0,0,0,0,0,0,0,0,0,0,0,0,0,0,0,0,0,0,0,0,0,0,0,0,0,0,0,0,0,0,0,0,0,0,0,0,0,0,0,0,0,0,0,0,0,0,0,0,0,0,0,0,0,0,0,0,0,0,0,0,0,0,0,0,0,0,0,0,0,0,0,0,0,0,0,0,0,0,0,0,0,0,0,0,0,0,0,0,0,0,0,0,0,0,0,0,0,0,0,0,0,0,0,0,0,0,0,0,0,0,0,0,2,47,105,157,188,198,192,187,178,159,149,166,186,188,186,190,193,194,195,198,200,201,204,209,214,216,216,216,218,220,223,223,223,225,229,231,232,227,222,226,233,235,234,239,238,240,240,235,229,227,226,222,220,228,228,191,146,96.00001,78,76,75,86,85,70,43,19,0,20,36,14,0,0,5,48,85,92,82,44,1,0,0,0,0,1,3,6,6,5,2,5,7,14,20,21,21,21,24,31,40,44,46,45,44,45,46,45,44,46,47,46,45,46,50,53,55,57,55,54,54,54,54,53,52,54,59,62,64,64,64,63,63,63,63,63,62,63,64,64,66,68,71,70,69,68,68,69,71,74,78,79,80,80,79,79,81,80,78,77,78,80,80,83,83,84,84,82,79,79,76,77,76,59,45,68,107,135,140,138,131,127,121,118,117,114,114,115,117,120,123,125,129,135,145,173,181,114,22,32,73,81,87,90,92,94,94,92,90,96.00001,101,103,104,105,104,105,105,104,104,104,105,105,105,104,103,105,105,105,106,109,112,115,117,114,111,109,107,106,106,107,108,109,110,112,113,113,114,116,117,112,107,105,105,102,101,103,105,107,108,104,103,104,105,106,108,109,110,109,109,111,112,112,111,111,111,111,111,112,112,113,112,110,107,109,109,107,106,104,103,106,110,110,109,109,110,109,108,109,109,108,108,108,109,110,109,110,110,109,109,109,110,111,110,106,103,102,103,104,104,105,106,110,111,107,102,99.00001,96.00001,96.00001,98.00001,100,102,103,104,103,101,100,100,98.00001,97.00001,97.00001,95,94,95,96.00001,97.00001,96.00001,94,95,95,92,91,90,90,90,90,89,88,87,88,88,88,88,88,88,88,86,83,78,74,77,79,75,70,71,74,77,79,78,76,73,71,68,67,64,63,62,61,59,60,68,73,72,66,59,50,43,39,43,48,50,51,51,52,58,60,51,35,23,10,2,0,0,0,0,0,0,0,0,0,0,0,0,0,0,0,0,0,0,0,0,0,0,0,0,0,0,0,0,0,0,0,0,0,0,0,0,0,0,0,0,0,0,0,0,0,0,0,0,0,0,0,0,0,0,0,0,0,0,0,0,0,0,0,0,0,0,0,0,0,0,0,0,0,0,0,0,0,0,0,0,0,0,0,0,0,0,0,0,0,0,0,0,0,0,0,0,0,0,0,0,0,0,0,0,0,0,0,0,0,0,0,0
0,0,0,0,0,0,0,0,0,0,0,0,0,0,0,0,0,0,0,0,0,0,0,0,0,0,0,0,0,0,0,0,0,0,0,0,0,0,0,0,0,0,0,0,0,0,0,0,0,0,0,0,0,0,0,0,0,0,0,0,0,0,0,0,0,0,0,0,0,0,0,0,0,0,0,0,0,0,0,0,0,0,0,0,0,0,0,0,0,0,0,0,0,0,0,0,0,0,0,0,0,0,0,0,0,0,0,0,0,0,0,0,0,0,1,0,0,0,0,0,17,87,167,187,188,193,194,191,187,186,186,185,186,191,195,196,197,203,208,214,216,221,223,223,223,225,227,225,224,227,235,239,240,244,248,254,254,230,208,222,245,250,252,251,245,250,248,211,175,171,173,149,132,136,172,124,41,27,23,21,23,28,30,24,19,15,12,21,28,19,10,9,13,23,33,32,29,20,14,14,14,17,20,21,24,22,23,25,25,28,30,31,34,32,32,37,41,44,47,51,54,57,58,58,58,55,53,53,55,55,57,58,59,61,62,62,62,63,63,64,64,65,64,63,65,65,66,69,71,73,73,71,70,68,68,68,70,72,75,79,82,83,83,82,80,80,81,83,86,87,89,88,88,89,90,90,89,88,88,88,89,89,89,89,89,90,90,87,84,83,81,76,64,46,28,61,106,136,134,130,121,119,119,119,119,118,118,120,123,126,131,135,143,166,173,104,23,44,83,92,95,99.00001,102,104,104,104,105,108,112,113,112,111,109,109,110,110,109,111,112,114,115,113,113,113,113,113,114,115,118,119,119,118,116,115,115,115,116,117,118,116,114,115,115,114,113,114,115,112,110,111,112,112,113,117,118,119,117,114,112,112,113,114,115,115,116,116,117,117,116,115,115,116,117,117,118,117,117,117,117,114,111,110,111,111,112,112,113,117,121,121,120,118,116,115,114,113,112,115,115,117,119,120,120,115,111,111,113,115,117,118,118,117,115,114,114,114,114,114,113,114,113,111,110,108,106,107,109,109,109,109,110,109,108,108,108,106,106,107,108,105,103,102,102,101,101,102,101,101,101,100,98.00001,97.00001,97.00001,96.00001,95,95,95,95,95,95,95,94,92,90,87,84,83,85,87,85,83,83,83,85,87,87,87,84,84,80,77,76,75,73,73,73,74,76,79,80,79,72,63,59,57,57,60,61,61,59,58,63,67,65,54,37,17,3,0,0,0,0,0,0,0,0,0,0,0,0,0,0,0,0,0,0,0,0,0,0,0,0,0,0,0,0,0,0,0,0,0,0,0,0,0,0,0,0,0,0,0,0,0,0,0,0,0,0,0,0,0,0,0,0,0,0,0,0,0,0,0,0,0,0,0,0,0,0,0,0,0,0,0,0,0,0,0,0,0,0,0,0,0,0,0,0,0,0,0,0,0,0,0,0,0,0,0,0,0,0,0,0,0,0,0,0,0,0,0,0
0,0,0,0,0,0,0,0,0,0,0,0,0,0,0,0,0,0,0,0,0,0,0,0,0,0,0,0,0,0,0,0,0,0,0,0,0,0,0,0,0,0,0,0,0,0,0,0,0,0,0,0,0,0,0,0,0,0,0,0,0,0,0,0,0,0,0,0,0,0,0,0,0,0,0,0,0,0,0,0,0,0,0,0,0,0,0,0,0,0,0,0,0,0,0,0,0,0,0,0,0,0,0,0,0,0,0,0,0,0,0,0,0,0,0,0,0,0,0,16,65,147,204,209,201,206,207,203,199,204,209,204,198,201,205,206,209,215,225,228,229,234,237,236,233,232,230,232,230,231,230,233,235,230,224,222,220,180,128,165,196,212,226,212,192,196,194,153,78,77,83,54,45,68,81,45,3,0,2,2,2,2,2,5,12,19,23,25,25,29,29,27,22,15,7,5,6,15,27,32,35,37,39,40,40,39,39,41,42,43,44,43,44,44,44,50,55,55,55,60,64,66,68,69,69,67,64,64,65,66,69,70,70,70,70,71,71,72,73,75,77,78,78,77,75,75,75,80,84,85,84,83,81,80,79,79,79,82,85,90,95,97.00001,97.00001,95,92,91,91,94,96.00001,99.00001,99.00001,99.00001,98.00001,100,100,101,101,100,99.00001,99.00001,97.00001,99.00001,99.00001,99.00001,99.00001,100,101,99.00001,96.00001,94,92,94,86,44,0,30,79,127,147,140,127,125,125,124,123,121,120,122,125,127,130,135,141,162,166,98.00001,22,44,91,105,107,110,113,115,116,117,119,124,127,126,125,124,122,120,120,121,120,120,121,123,124,123,124,125,124,123,123,123,124,126,126,127,125,125,126,127,128,129,130,127,124,123,123,122,122,121,121,120,120,120,121,123,126,130,132,130,128,125,124,123,122,123,124,124,125,127,128,127,126,123,123,125,127,127,127,125,125,125,125,121,119,119,120,120,122,123,124,130,133,134,132,129,125,124,123,122,122,125,126,128,131,132,132,125,119,120,122,125,127,128,130,129,128,126,128,126,126,126,125,123,120,119,119,118,116,117,118,120,119,118,118,120,119,119,119,118,118,120,121,118,115,113,112,112,113,113,114,114,113,112,111,110,109,106,105,105,105,106,105,105,106,104,101,97.00001,94,92,92,95,97.00001,97.00001,95,95,94,95,97.00001,98.00001,96.00001,97.00001,96.00001,92,87,87,87,86,85,86,87,88,89,91,91,84,77,74,73,71,72,71,72,71,70,71,74,75,67,43,15,3,0,0,0,0,0,0,0,0,0,0,0,0,0,0,0,0,0,0,0,0,0,0,0,0,0,0,0,0,0,0,0,0,0,0,0,0,0,0,0,0,0,0,0,0,0,0,0,0,0,0,0,0,0,0,0,0,0,0,0,0,0,0,0,0,0,0,0,0,0,0,0,0,0,0,0,0,0,0,0,0,0,0,0,0,0,0,0,0,0,0,0,0,0,0,0,0,0,0,0,0,0,0,0,0,0,0,0,0,0,0,0,0
0,0,0,0,0,0,0,0,0,0,0,0,0,0,0,0,0,0,0,0,0,0,0,0,0,0,0,0,0,0,0,0,0,0,0,0,0,0,0,0,0,0,0,0,0,0,0,0,0,0,0,0,0,0,0,0,0,0,0,0,0,0,0,0,0,0,0,0,0,0,0,0,0,0,0,0,0,0,0,0,0,0,0,0,0,0,0,0,0,0,0,0,0,0,0,0,0,0,0,0,0,0,0,0,0,0,0,0,0,0,0,0,0,0,0,0,0,0,0,37,113,174,214,224,225,228,231,222,213,209,210,215,221,219,216,217,222,230,237,236,236,244,249,247,239,234,234,239,243,226,212,212,210,192,167,152,134,67,48,45,61,103,168,135,67,65,69,47,25,17,29,16,13,19,24,20,14,15,20,21,21,21,23,25,30,34,37,40,40,41,40,40,39,34,30,29,30,35,43,48,51,51,51,51,51,50,48,48,48,49,51,49,49,49,51,58,62,64,64,67,69,73,76,76,75,73,72,72,74,75,76,77,79,80,80,80,79,80,82,84,88,88,88,87,87,87,87,91,95,95,94,92,93,92,92,90,91,93,96.00001,101,104,106,106,102,98.00001,98.00001,99.00001,103,106,108,109,108,106,106,106,109,109,109,107,106,105,107,109,109,109,109,109,109,108,107,105,107,104,69,33,27,48,120,165,157,139,132,129,126,123,123,124,124,127,127,128,134,140,160,162,96.00001,14,43,98.00001,114,116,120,120,123,125,126,130,135,138,139,138,137,135,133,131,130,130,129,128,129,130,131,133,132,132,130,127,130,132,133,134,134,134,135,134,135,136,137,138,136,136,133,133,133,135,132,131,130,132,131,130,132,134,137,139,138,136,134,132,131,130,131,132,134,134,136,137,138,137,135,133,133,135,135,134,133,132,131,129,130,130,130,131,132,133,133,133,139,144,143,140,138,135,133,132,133,133,135,136,139,141,141,141,136,131,131,132,134,136,138,140,137,136,136,136,135,134,134,134,132,130,129,127,125,124,124,125,126,129,129,128,129,131,130,129,129,129,130,130,129,127,123,121,122,124,124,124,125,124,123,120,120,118,117,116,116,115,115,115,114,112,111,109,105,102,101,99.00001,103,107,104,101,101,100,102,103,103,102,103,102,98.00001,94,93,93,92,92,93,95,97.00001,99.00001,99.00001,98.00001,91,85,83,83,82,81,80,80,82,86,82,78,80,74,43,4,0,0,1,3,1,0,0,0,0,0,0,0,0,0,0,0,0,0,0,0,0,0,0,0,0,0,0,0,0,0,0,0,0,0,0,0,0,0,0,0,0,0,0,0,0,0,0,0,0,0,0,0,0,0,0,0,0,0,0,0,0,0,0,0,0,0,0,0,0,0,0,0,0,0,0,0,0,0,0,0,0,0,0,0,0,0,0,0,0,0,0,0,0,0,0,0,0,0,0,0,0,0,0,0,0,0,0,0,0,0,0,0,0
0,0,0,0,0,0,0,0,0,0,0,0,0,0,0,0,0,0,0,0,0,0,0,0,0,0,0,0,0,0,0,0,0,0,0,0,0,0,0,0,0,0,0,0,0,0,0,0,0,0,0,0,0,0,0,0,0,0,0,0,0,0,0,0,0,0,0,0,0,0,0,0,0,0,0,0,0,0,0,0,0,0,0,0,0,0,0,0,0,0,0,0,0,0,0,0,0,0,0,0,0,0,0,0,0,0,0,0,0,0,0,0,0,0,0,0,1,0,2,86,182,212,220,220,215,207,209,211,205,209,214,208,202,189,183,204,233,242,242,227,214,208,210,229,242,218,195,191,192,178,153,128,149,101,72,60,46,16,1,0,1,46,84,46,7,4,9,3,0,0,0,3,3,3,4,14,25,30,33,36,39,40,40,41,42,46,50,51,50,52,53,53,51,49,48,47,48,53,60,65,68,68,66,66,65,63,61,61,60,60,61,60,61,62,64,68,71,73,72,74,76,80,84,83,82,82,83,82,85,86,87,89,90,91,92,91,90,90,91,96.00001,100,101,100,99.00001,99.00001,99.00001,99.00001,103,108,108,106,106,105,105,106,104,104,106,108,112,114,115,115,111,108,109,109,113,116,119,119,119,117,116,116,117,118,117,116,116,114,118,120,120,120,120,120,118,117,117,117,121,118,94,69,27,9,81,166,163,145,139,134,130,126,127,128,128,129,129,129,132,138,155,157,87,6,37,99.00001,120,129,133,134,135,137,139,141,148,151,150,148,149,149,146,143,141,141,140,138,139,139,142,143,142,140,138,137,139,142,143,142,144,145,145,144,144,145,147,149,149,148,147,145,146,147,145,143,143,143,142,141,142,144,146,147,147,145,144,142,142,142,143,144,144,144,145,146,147,148,146,144,143,142,144,143,142,141,139,137,138,142,143,142,143,144,143,144,149,154,153,150,146,144,144,144,143,144,145,146,148,151,152,150,147,144,143,144,146,148,149,150,149,148,147,148,147,146,146,146,145,144,141,139,137,134,135,135,138,141,142,141,141,142,142,141,141,141,142,141,141,137,136,134,134,135,136,137,136,135,134,133,131,129,128,127,127,126,126,125,123,122,121,119,116,113,111,109,114,118,116,112,111,112,111,112,112,112,113,113,109,106,105,105,105,104,105,106,108,109,109,107,100,94,94,95,95,94,92,91,96.00001,98.00001,93,87,89,80,42,0,0,0,3,8,3,0,0,0,0,0,0,0,0,0,0,0,0,0,0,0,0,0,0,0,0,0,0,0,0,0,0,0,0,0,0,0,0,0,0,0,0,0,0,0,0,0,0,0,0,0,0,0,0,0,0,0,0,0,0,0,0,0,0,0,0,0,0,0,0,0,0,0,0,0,0,0,0,0,0,0,0,0,0,0,0,0,0,0,0,0,0,0,0,0,0,0,0,0,0,0,0,0,0,0,0,0,0,0,0,0,0,0,0
0,0,0,0,0,0,0,0,0,0,0,0,0,0,0,0,0,0,0,0,0,0,0,0,0,0,0,0,0,0,0,0,0,0,0,0,0,0,0,0,0,0,0,0,0,0,0,0,0,0,0,0,0,0,0,0,0,0,0,0,0,0,0,0,0,0,0,0,0,0,0,0,0,0,0,0,0,0,0,0,0,0,0,0,0,0,0,0,0,0,0,0,0,0,0,0,0,0,0,0,0,0,0,0,0,0,0,0,0,0,0,0,2,0,0,0,4,9,36,124,222,238,227,202,166,158,158,175,188,211,224,192,154,121,93,178,244,255,244,210,171,114,112,196,245,192,103,73,69,54,46,45,45,30,15,16,22,15,9,8,9,21,27,22,13,15,22,27,22,16,15,19,27,30,33,36,35,36,37,44,49,50,50,50,52,54,58,58,57,61,63,63,62,61,59,60,61,65,71,76,79,80,79,77,73,72,70,69,70,69,69,70,72,73,75,77,78,78,78,81,83,87,90,90,89,90,91,92,93,94,95,97.00001,98.00001,99.00001,100,99.00001,98.00001,96.00001,97.00001,104,111,111,110,109,108,108,110,113,117,117,116,113,111,114,116,115,115,116,118,120,121,121,120,117,117,117,119,121,124,125,126,127,126,126,126,126,126,125,124,124,124,126,128,128,128,129,129,125,121,123,126,128,125,116,98.00001,31,0,65,161,160,145,141,138,136,133,133,132,132,131,131,131,131,134,151,151,82,0,29,93,122,139,144,146,147,147,150,152,156,158,158,155,156,156,154,152,151,150,148,148,149,149,150,151,149,148,145,146,149,152,152,150,151,151,151,151,152,152,154,156,157,157,156,155,157,157,155,155,154,153,152,151,151,152,152,153,153,152,152,152,151,151,153,154,153,152,152,153,154,155,152,151,151,152,151,150,148,148,145,144,147,151,151,150,149,150,151,152,158,161,161,158,156,154,153,153,152,152,154,154,156,159,160,158,155,151,152,155,156,157,157,157,158,158,158,157,156,156,155,154,154,154,151,149,147,144,145,146,148,150,149,149,150,150,150,150,151,150,151,149,147,145,144,143,143,142,144,145,144,143,141,141,139,136,136,136,135,134,133,132,131,130,129,127,125,122,120,118,123,127,125,122,121,121,120,120,121,122,123,123,121,118,117,117,117,115,116,116,116,116,115,114,107,101,101,103,103,101,100,100,102,103,105,103,94,78,40,0,0,0,5,14,5,0,0,0,0,0,0,0,0,0,0,0,0,0,0,0,0,0,0,0,0,0,0,0,0,0,0,0,0,0,0,0,0,0,0,0,0,0,0,0,0,0,0,0,0,0,0,0,0,0,0,0,0,0,0,0,0,0,0,0,0,0,0,0,0,0,0,0,0,0,0,0,0,0,0,0,0,0,0,0,0,0,0,0,0,0,0,0,0,0,0,0,0,0,0,0,0,0,0,0,0,0,0,0,0,0,0,0,0
0,0,0,0,0,0,0,0,0,0,0,0,0,0,0,0,0,0,0,0,0,0,0,0,0,0,0,0,0,0,0,0,0,0,0,0,0,0,0,0,0,0,0,0,0,0,0,0,0,0,0,0,0,0,0,0,0,0,0,0,0,0,0,0,0,0,0,0,0,0,0,0,0,0,0,0,0,0,0,0,0,0,0,0,0,0,0,0,0,0,0,0,0,0,0,0,0,0,0,0,0,0,0,0,0,0,0,0,0,0,0,0,2,0,0,0,3,49,108,186,217,210,177,141,75,67,71,87,109,157,172,134,68,35,37,96.00001,188,202,189,149,112,63,61,115,187,137,71,19,8,4,3,4,5,0,0,1,10,13,23,21,21,15,8,15,22,29,33,35,37,32,29,35,42,46,50,52,50,49,48,53,60,61,61,61,63,65,67,66,64,69,72,72,70,71,70,72,74,78,84,88,92,92,91,88,84,82,81,82,82,81,81,84,88,90,90,89,87,87,87,88,92,95,98.00001,98.00001,98.00001,101,101,102,103,104,105,106,108,109,109,108,107,106,108,114,121,122,121,119,118,118,120,124,127,127,125,123,121,123,125,125,125,126,127,128,128,127,126,127,128,129,130,132,134,135,136,137,137,137,137,137,137,136,135,135,135,136,137,138,138,140,141,137,135,136,138,136,134,134,124,50,0,42,106,145,148,145,141,139,137,137,136,134,133,132,132,134,136,151,148,81,0,10,59,102,145,156,158,160,161,163,167,168,168,168,165,167,166,165,162,162,161,160,160,163,162,162,161,159,159,158,159,161,163,164,164,161,159,159,160,161,163,164,166,167,169,168,167,168,169,169,168,167,166,165,164,164,163,163,163,163,163,163,163,163,164,164,165,164,163,162,161,163,164,161,159,162,164,163,162,161,158,157,156,160,164,163,161,159,160,161,162,167,173,171,168,166,164,165,166,164,163,164,164,166,168,170,169,165,162,163,165,165,168,168,167,169,169,169,169,168,168,167,166,167,166,164,160,158,155,157,158,161,161,161,160,159,160,159,159,160,162,162,158,157,155,153,152,152,154,155,154,154,152,151,151,149,145,145,145,143,144,143,141,142,141,141,139,137,135,131,132,135,138,138,135,134,132,131,131,132,132,135,135,134,132,131,128,129,129,128,128,127,126,124,122,117,111,111,112,113,114,112,110,111,112,115,115,106,88,55,17,12,15,17,16,5,0,0,0,0,0,0,0,0,0,0,0,0,0,0,0,0,0,0,0,0,0,0,0,0,0,0,0,0,0,0,0,0,0,0,0,0,0,0,0,0,0,0,0,0,0,0,0,0,0,0,0,0,0,0,0,0,0,0,0,0,0,0,0,0,0,0,0,0,0,0,0,0,0,0,0,0,0,0,0,0,0,0,0,0,0,0,0,0,0,0,0,0,0,0,0,0,0,0,0,0,0,0,0,0,0,0,0,0
0,0,0,0,0,0,0,0,0,0,0,0,0,0,0,0,0,0,0,0,0,0,0,0,0,0,0,0,0,0,0,0,0,0,0,0,0,0,0,0,0,0,0,0,0,0,0,0,0,0,0,0,0,0,0,0,0,0,0,0,0,0,0,0,0,0,0,0,0,0,0,0,0,0,0,0,0,0,0,0,0,0,0,0,0,0,0,0,0,0,0,0,0,0,0,0,0,0,0,0,0,0,0,0,0,0,0,0,0,0,0,0,0,0,0,0,2,96.00001,217,213,173,125,57,25,5,2,3,12,24,39,51,29,5,0,0,34,58,66,58,40,24,40,57,87,53,43,31,20,13,13,17,24,27,22,16,17,19,20,21,29,35,39,41,43,46,45,44,45,43,42,41,45,49,51,55,63,65,63,60,61,64,65,67,67,69,72,74,72,69,73,76,77,76,77,77,79,82,86,93,98.00001,101,100,98.00001,94,91,90,90,91,90,91,93,97.00001,101,103,104,100,95,95,95,96.00001,100,103,106,107,108,111,111,111,111,112,114,113,115,117,117,114,112,114,116,121,127,127,125,125,124,124,125,129,133,133,131,131,130,130,130,131,132,134,135,134,133,133,133,135,137,138,139,140,143,143,145,146,146,145,145,147,147,147,145,143,143,145,146,147,147,149,150,151,150,150,148,142,138,144,136,83,8,23,58,125,160,153,139,139,140,140,139,136,134,132,132,139,145,155,147,82,3,0,13,80,149,167,165,170,173,177,178,177,177,175,175,175,174,172,170,170,169,171,173,173,170,168,167,168,169,169,170,172,172,175,175,169,162,164,167,170,172,174,175,176,178,177,177,177,178,178,177,177,175,175,174,175,174,174,174,173,173,173,173,174,174,174,173,173,174,172,172,173,173,169,167,172,176,176,175,174,171,170,170,172,173,171,170,170,170,170,171,176,181,179,175,172,170,172,174,174,174,173,173,175,178,179,176,173,170,168,170,173,174,175,175,176,178,177,178,179,178,179,178,177,175,173,169,167,165,168,169,169,170,169,169,168,168,168,168,169,168,169,166,165,163,163,161,162,163,164,164,164,163,161,159,156,152,151,151,151,152,153,153,152,150,152,150,148,145,144,144,147,149,148,146,145,143,143,142,141,141,143,145,145,143,141,137,139,141,139,138,137,135,132,129,126,122,121,121,122,122,119,116,120,122,123,122,113,103,89,76,68,58,46,33,10,0,0,0,0,0,0,0,0,0,0,0,0,0,0,0,0,0,0,0,0,0,0,0,0,0,0,0,0,0,0,0,0,0,0,0,0,0,0,0,0,0,0,0,0,0,0,0,0,0,0,0,0,0,0,0,0,0,0,0,0,0,0,0,0,0,0,0,0,0,0,0,0,0,0,0,0,0,0,0,0,0,0,0,0,0,0,0,0,0,0,0,0,0,0,0,0,0,0,0,0,0,0,0,0,0,0,0,0
0,0,0,0,0,0,0,0,0,0,0,0,0,0,0,0,0,0,0,0,0,0,0,0,0,0,0,0,0,0,0,0,0,0,0,0,0,0,0,0,0,0,0,0,0,0,0,0,0,0,0,0,0,0,0,0,0,0,0,0,0,0,0,0,0,0,0,0,0,0,0,0,0,0,0,0,0,0,0,0,0,0,0,0,0,0,0,0,0,0,0,0,0,0,0,0,0,0,0,0,0,0,0,0,0,0,0,0,0,0,0,0,0,0,0,0,0,93,199,170,82,40,0,0,0,0,0,0,0,0,0,0,0,0,0,0,0,0,0,0,0,10,33,12,0,0,6,10,15,22,27,35,40,37,35,35,34,33,34,41,48,55,60,62,62,61,57,54,52,52,53,57,60,62,64,72,77,76,73,73,74,75,76,78,80,82,83,82,81,84,87,86,84,86,88,90,92,98.00001,102,106,109,108,107,104,100,101,102,102,102,104,108,110,113,115,115,112,107,107,107,109,111,113,116,118,120,121,121,121,121,122,123,123,125,127,126,124,124,124,127,131,134,135,135,135,136,135,137,140,142,142,141,141,140,140,140,141,143,144,144,143,140,140,141,145,149,150,150,151,154,156,158,158,156,156,156,157,158,159,157,155,154,156,157,157,159,159,160,163,163,161,159,156,154,158,150,111,55,14,21,72,146,153,147,145,144,141,140,136,134,132,133,139,146,153,144,92,22,0,0,70,149,173,177,180,182,190,195,194,191,192,196,192,188,184,182,181,181,185,186,184,183,183,183,183,182,181,181,182,182,185,186,181,174,175,178,182,187,188,188,190,190,188,186,187,189,189,190,189,188,188,187,185,183,184,185,183,181,181,181,183,184,183,182,182,182,182,181,182,183,181,182,187,192,191,189,185,183,183,185,186,187,183,180,181,180,180,180,185,190,188,185,185,185,185,183,183,184,185,185,188,189,188,185,181,179,179,181,185,187,187,188,189,189,187,186,188,190,191,191,189,188,185,183,181,179,178,180,181,181,181,180,180,180,180,181,179,178,178,178,175,173,172,172,171,170,173,174,174,174,173,168,167,164,162,161,162,163,165,165,164,164,165,163,160,157,157,157,159,160,160,159,160,160,158,156,155,153,154,155,154,153,152,148,149,151,151,150,149,147,144,140,138,135,135,133,134,134,129,127,130,132,132,129,122,116,112,108,91,76,59,47,23,7,2,0,0,0,0,0,0,0,0,0,0,0,0,0,0,0,0,0,0,0,0,0,0,0,0,0,0,0,0,0,0,0,0,0,0,0,0,0,0,0,0,0,0,0,0,0,0,0,0,0,0,0,0,0,0,0,0,0,0,0,0,0,0,0,0,0,0,0,0,0,0,0,0,0,0,0,0,0,0,0,0,0,0,0,0,0,0,0,0,0,0,0,0,0,0,0,0,0,0,0,0,0,0,0,0,0,0
0,0,0,0,0,0,0,0,0,0,0,0,0,0,0,0,0,0,0,0,0,0,0,0,0,0,0,0,0,0,0,0,0,0,0,0,0,0,0,0,0,0,0,0,0,0,0,0,0,0,0,0,0,0,0,0,0,0,0,0,0,0,0,0,0,0,0,0,0,0,0,0,0,0,0,0,0,0,0,0,0,0,0,0,0,0,0,0,0,0,0,0,0,0,0,0,0,0,0,0,0,0,0,0,0,0,0,0,0,0,0,0,0,0,0,0,3,36,63,47,20,2,0,0,0,0,0,0,0,0,0,0,0,0,0,0,0,0,0,0,0,1,2,0,0,1,8,17,29,32,35,41,45,46,46,48,50,49,48,52,57,62,66,67,67,67,66,63,60,62,64,66,68,72,75,78,80,82,84,85,86,87,88,90,90,92,94,95,95,97.00001,97.00001,95,93,95,95,98.00001,101,105,107,111,114,114,114,112,110,111,112,113,113,114,116,118,119,119,119,119,118,117,119,119,120,122,124,126,126,128,128,128,128,128,129,130,134,135,135,134,134,135,136,139,141,143,144,146,149,149,149,149,150,150,150,151,149,149,149,152,151,152,151,148,147,146,146,153,158,160,159,162,165,168,171,169,166,167,168,169,169,168,167,166,167,166,166,167,168,168,166,166,167,167,167,170,172,168,157,123,105,28,0,33,97.00001,139,160,156,145,141,138,136,134,133,134,135,138,146,143,105,65,6,0,55,147,175,186,186,184,200,214,215,212,214,217,213,206,198,193,190,190,193,198,195,191,195,199,198,195,191,189,188,188,191,193,191,186,187,188,193,198,199,200,202,202,196,191,194,198,198,199,199,199,195,193,189,186,190,193,190,185,184,184,186,188,188,187,188,189,189,188,191,193,197,201,202,205,204,201,195,191,192,195,198,200,193,188,186,187,185,186,191,196,195,195,200,204,199,192,188,186,190,196,198,199,197,192,188,186,188,192,196,199,200,199,200,199,195,191,194,197,199,199,199,198,195,190,188,186,185,185,187,189,191,191,191,190,191,189,188,189,189,189,186,184,181,179,176,175,178,181,182,182,180,178,178,177,176,174,175,176,174,172,175,177,176,173,171,170,167,168,169,169,170,171,172,173,172,170,168,166,165,163,161,160,157,157,157,157,157,158,158,157,153,149,149,149,148,147,146,143,140,138,139,139,137,134,126,121,120,111,85,43,45,55,37,22,33,21,8,0,0,0,0,0,0,0,0,0,0,0,0,0,0,0,0,0,0,0,0,0,0,0,0,0,0,0,0,0,0,0,0,0,0,0,0,0,0,0,0,0,0,0,0,0,0,0,0,0,0,0,0,0,0,0,0,0,0,0,0,0,0,0,0,0,0,0,0,0,0,0,0,0,0,0,0,0,0,0,0,0,0,0,0,0,0,0,0,0,0,0,0,0,0,0,0,0,0,0,0,0,0,0,0
0,0,0,0,0,0,0,0,0,0,0,0,0,0,0,0,0,0,0,0,0,0,0,0,0,0,0,0,0,0,0,0,0,0,0,0,0,0,0,0,0,0,0,0,0,0,0,0,0,0,0,0,0,0,0,0,0,0,0,0,0,0,0,0,0,0,0,0,0,0,0,0,0,0,0,0,0,0,0,0,0,0,0,0,0,0,0,0,0,0,0,0,0,0,0,0,0,0,0,0,0,0,0,0,0,0,0,0,0,0,0,0,0,0,0,2,3,3,0,0,0,0,0,7,16,35,44,46,41,31,17,6,3,16,32,15,3,3,2,0,0,0,0,0,0,0,2,15,31,39,44,48,51,52,53,62,67,66,65,66,68,71,75,75,74,76,77,73,69,71,75,77,78,83,86,87,88,91,96.00001,97.00001,98.00001,99.00001,99.00001,101,102,103,104,106,108,110,110,105,102,101,103,106,109,113,115,118,121,122,123,122,121,122,123,125,126,127,129,129,129,129,130,131,132,132,132,131,131,132,134,137,138,138,138,138,138,137,138,141,143,145,145,145,145,145,147,149,152,154,155,158,160,160,161,161,159,162,162,161,161,161,162,163,163,163,161,159,158,157,158,164,169,169,168,171,174,179,181,179,177,177,179,180,180,179,178,178,179,178,177,177,178,177,176,174,175,178,180,184,186,182,173,168,149,77,2,12,50,106,165,158,148,143,139,137,135,135,134,133,134,140,140,122,98.00001,32,0,39,100,165,198,203,198,198,199,199,199,200,201,201,203,205,206,205,206,207,208,209,208,212,216,214,208,206,203,200,198,202,204,205,205,207,208,214,218,218,216,216,216,210,205,207,210,211,210,213,216,212,205,199,195,198,202,197,191,191,193,194,195,196,197,199,201,203,205,208,211,216,217,217,218,217,214,207,200,201,205,208,211,207,202,199,200,200,202,208,214,211,209,214,218,212,205,201,201,203,207,211,214,208,205,202,199,203,208,209,210,212,210,210,208,206,205,206,207,208,210,211,210,208,205,203,200,197,194,196,199,203,205,205,204,202,200,199,198,198,198,197,194,190,186,184,183,187,193,194,193,193,193,191,191,189,187,189,192,189,186,190,192,188,184,185,185,183,182,182,183,182,181,184,185,184,183,181,178,178,176,173,171,168,167,167,167,168,169,170,170,167,163,162,163,162,160,158,156,154,152,151,148,146,143,137,133,131,123,96.00001,59,70,63,46,15,31,55,19,0,0,0,0,0,0,0,0,0,0,0,0,0,0,0,0,0,0,0,0,0,0,0,0,0,0,0,0,0,0,0,0,0,0,0,0,0,0,0,0,0,0,0,0,0,0,0,0,0,0,0,0,0,0,0,0,0,0,0,0,0,0,0,0,0,0,0,0,0,0,0,0,0,0,0,0,0,0,0,0,0,0,0,0,0,0,0,0,0,0,0,0,0,0,0,0,0,0,0,0,0,0,0,0
0,0,0,0,0,0,0,0,0,0,0,0,0,0,0,0,0,0,0,0,0,0,0,0,0,0,0,0,0,0,0,0,0,0,0,0,0,0,0,0,0,0,0,0,0,0,0,0,0,0,0,0,0,0,0,0,0,0,0,0,0,0,0,0,0,0,0,0,0,0,0,0,0,0,0,0,0,0,0,0,0,0,0,0,0,0,0,0,0,0,0,0,0,0,0,0,0,0,0,0,0,0,0,0,0,0,0,0,0,0,0,0,0,0,0,0,2,2,0,0,0,4,27,50,74,115,140,137,140,134,106,66,52,73,109,70,60,66,65,23,0,0,0,0,0,0,0,8,25,40,50,53,55,53,55,68,79,78,77,77,77,78,81,81,80,81,84,81,79,81,86,87,87,90,93,94,95,99.00001,102,105,106,108,107,108,109,110,112,115,116,118,118,112,106,104,106,110,113,115,120,124,128,129,131,129,127,128,132,132,135,137,138,139,138,138,140,139,139,140,142,141,141,143,145,147,148,148,148,146,146,146,145,148,150,153,154,156,156,156,155,156,158,160,165,167,169,169,168,168,169,170,170,171,172,174,173,174,174,173,173,172,172,171,171,175,177,177,176,178,181,183,184,183,184,184,184,184,184,183,182,186,187,187,187,186,185,186,187,183,182,186,191,192,191,193,193,197,188,133,71,21,16,74,143,154,149,144,139,138,137,136,134,134,133,135,136,138,127,65,2,12,64,154,215,229,220,188,156,153,157,153,153,166,177,203,223,228,225,219,213,218,223,226,226,225,221,219,217,213,211,212,215,220,226,233,238,242,243,237,231,229,228,226,225,223,222,221,222,232,238,232,221,213,207,207,208,204,199,201,204,203,203,205,209,213,217,222,227,231,230,230,228,228,230,230,225,216,206,204,212,216,220,222,219,215,212,217,225,235,240,230,221,222,223,220,219,221,223,221,218,222,224,221,220,217,216,218,222,219,217,218,217,214,213,217,221,220,220,218,217,217,219,219,218,217,216,210,203,201,204,210,215,214,213,211,208,207,206,205,204,202,198,196,194,191,189,196,204,204,201,203,204,202,198,195,194,198,203,200,198,201,201,197,191,193,194,194,194,193,192,189,187,188,191,190,188,188,188,187,186,184,181,178,177,177,177,179,180,181,181,180,178,175,173,170,168,164,162,161,160,158,157,156,154,150,147,142,134,122,101,76,28,3,0,32,76,34,0,0,0,0,0,0,0,0,0,0,0,0,0,0,0,0,0,0,0,0,0,0,0,0,0,0,0,0,0,0,0,0,0,0,0,0,0,0,0,0,0,0,0,0,0,0,0,0,0,0,0,0,0,0,0,0,0,0,0,0,0,0,0,0,0,0,0,0,0,0,0,0,0,0,0,0,0,0,0,0,0,0,0,0,0,0,0,0,0,0,0,0,0,0,0,0,0,0,0,0,0,0,0,0
0,0,0,0,0,0,0,0,0,0,0,0,0,0,0,0,0,0,0,0,0,0,0,0,0,0,0,0,0,0,0,0,0,0,0,0,0,0,0,0,0,0,0,0,0,0,0,0,0,0,0,0,0,0,0,0,0,0,0,0,0,0,0,0,0,0,0,0,0,0,0,0,0,0,0,0,0,0,0,0,0,0,0,0,0,0,0,0,0,0,0,0,0,0,0,0,0,0,0,0,0,0,0,0,0,0,0,0,0,0,0,0,0,0,0,0,0,0,0,5,24,47,73,98.00001,133,154,175,183,184,171,156,142,128,144,159,155,142,153,153,104,25,8,5,2,0,0,0,0,14,31,45,55,61,64,66,77,88,89,89,88,88,89,90,89,88,90,92,91,89,92,97.00001,98.00001,99.00001,101,102,103,105,108,112,114,116,117,117,118,118,120,122,124,125,127,126,121,115,112,113,118,121,124,129,132,134,136,137,137,137,139,141,142,145,147,149,149,148,149,151,151,151,152,155,153,154,154,157,157,158,158,159,157,156,155,156,158,161,163,165,166,167,166,165,165,167,169,174,177,179,178,177,179,180,182,182,183,185,186,185,186,186,186,186,185,184,186,186,185,183,185,188,190,192,194,194,193,193,193,195,195,195,194,194,197,199,200,199,198,196,197,196,194,191,197,202,202,200,194,194,190,187,161,126,41,0,33,99.00001,139,152,148,140,140,139,137,134,134,133,132,132,145,142,80,0,0,20,93,171,185,172,130,71,61,65,63,62,76,101,147,178,199,223,226,224,226,231,235,236,238,238,234,230,224,222,221,223,224,223,222,222,221,224,232,241,240,237,236,237,238,237,228,221,220,221,219,220,225,228,225,223,217,214,217,220,221,221,225,229,230,232,230,231,230,230,234,236,239,241,241,240,234,225,222,225,227,229,231,233,228,224,225,224,224,221,227,238,236,232,233,234,235,236,233,229,233,237,235,233,230,229,232,236,234,231,231,232,228,222,225,231,231,232,228,229,230,234,235,235,236,234,229,223,220,220,225,228,228,226,224,222,221,220,219,218,216,214,210,204,203,202,212,222,218,213,215,215,212,210,211,212,217,221,217,213,211,212,209,206,206,203,202,202,202,200,198,195,196,197,197,195,198,201,201,198,196,194,192,190,189,190,191,192,193,195,194,191,187,184,181,178,174,172,171,170,171,171,170,169,164,160,157,148,127,98.00001,47,3,0,0,31,53,43,0,0,0,0,0,0,0,0,0,0,0,0,0,0,0,0,0,0,0,0,0,0,0,0,0,0,0,0,0,0,0,0,0,0,0,0,0,0,0,0,0,0,0,0,0,0,0,0,0,0,0,0,0,0,0,0,0,0,0,0,0,0,0,0,0,0,0,0,0,0,0,0,0,0,0,0,0,0,0,0,0,0,0,0,0,0,0,0,0,0,0,0,0,0,0,0,0,0,0,0,0,0,0,0
0,0,0,0,0,0,0,0,0,0,0,0,0,0,0,0,0,0,0,0,0,0,0,0,0,0,0,0,0,0,0,0,0,0,0,0,0,0,0,0,0,0,0,0,0,0,0,0,0,0,0,0,0,0,0,0,0,0,0,0,0,0,0,0,0,0,0,0,0,0,0,0,0,0,0,0,0,0,0,0,0,0,0,0,0,0,0,0,0,0,0,0,0,0,0,0,0,0,0,0,0,0,0,0,0,0,0,0,0,0,0,0,0,0,0,0,0,0,0,24,85,113,133,148,160,171,179,180,180,179,178,176,177,180,182,187,190,203,207,170,129,90,70,33,0,0,0,0,0,12,29,52,71,75,76,83,91,94,96.00001,96.00001,97.00001,97.00001,97.00001,98.00001,97.00001,99.00001,101,100,99.00001,101,107,109,109,110,111,113,115,117,119,121,122,124,125,125,128,129,130,132,134,133,132,129,125,123,124,127,131,134,137,138,137,139,142,143,145,148,150,152,155,157,157,157,157,157,158,159,159,160,163,162,162,163,164,164,164,165,165,163,162,161,162,165,169,171,173,175,176,174,173,173,175,178,182,184,185,185,184,187,189,191,192,193,193,193,193,194,195,196,196,195,194,198,199,193,188,192,198,201,204,205,205,204,202,204,205,205,206,207,207,209,210,211,209,209,209,207,204,202,201,203,206,209,207,191,172,152,140,167,180,89,0,2,52,112,156,154,142,141,141,138,134,135,137,132,128,139,137,81,0,0,2,33,62,63,49,22,0,0,4,0,0,5,20,25,46,113,211,233,240,239,237,242,247,255,255,251,242,239,238,241,239,224,205,187,173,167,174,212,249,252,244,242,243,252,255,232,206,183,169,182,206,230,254,247,240,231,227,228,232,239,249,254,254,252,238,228,214,209,211,230,246,250,253,255,255,255,254,249,246,242,237,239,240,241,238,230,212,181,164,209,255,255,245,247,248,244,239,239,241,249,254,249,243,238,240,245,252,247,249,250,255,247,241,240,243,244,242,245,243,241,249,254,250,255,252,252,250,250,250,246,242,239,237,237,235,236,237,239,238,237,233,224,216,215,220,232,241,236,225,220,221,222,224,231,240,245,244,237,228,220,216,221,224,219,209,206,205,204,203,203,203,203,204,201,203,209,214,214,212,210,207,204,202,201,200,200,201,202,203,200,196,194,193,190,186,182,179,178,178,181,184,183,180,175,169,170,159,110,51,9,0,0,0,8,15,7,0,0,0,0,0,0,0,0,0,0,0,0,0,0,0,0,0,0,0,0,0,0,0,0,0,0,0,0,0,0,0,0,0,0,0,0,0,0,0,0,0,0,0,0,0,0,0,0,0,0,0,0,0,0,0,0,0,0,0,0,0,0,0,0,0,0,0,0,0,0,0,0,0,0,0,0,0,0,0,0,0,0,0,0,0,0,0,0,0,0,0,0,0,0,0,0,0,0,0,0,0,0,0,0
0,0,0,0,0,0,0,0,0,0,0,0,0,0,0,0,0,0,0,0,0,0,0,0,0,0,0,0,0,0,0,0,0,0,0,0,0,0,0,0,0,0,0,0,0,0,0,0,0,0,0,0,0,0,0,0,0,0,0,0,0,0,0,0,0,0,0,0,0,0,0,0,0,0,0,0,0,0,0,0,0,0,0,0,0,0,0,0,0,0,0,0,0,0,0,0,0,0,0,0,0,0,0,0,0,0,0,0,0,0,0,0,1,3,5,0,0,0,19,70,130,153,164,171,175,178,178,179,180,185,191,196,200,198,196,206,215,225,229,210,187,174,165,122,52,41,30,4,0,0,14,41,66,81,91,99.00001,102,107,108,109,109,108,108,108,107,109,111,112,111,113,118,120,121,122,123,125,126,128,129,131,132,134,135,136,138,139,140,142,144,142,140,138,137,136,137,140,143,147,149,146,144,147,152,154,156,160,163,166,168,168,168,168,168,169,170,170,168,170,172,171,171,172,173,173,172,173,173,172,170,170,171,176,181,182,185,186,186,185,185,186,186,188,191,193,193,193,194,197,201,202,204,204,203,203,203,204,205,206,207,206,206,207,208,203,198,204,212,217,221,221,219,219,217,219,221,220,223,224,224,225,227,227,224,223,222,219,216,216,215,213,212,218,213,172,122,75,59,105,156,90,0,0,10,85,157,159,145,143,141,138,135,136,137,132,126,135,131,83,15,0,0,0,3,0,0,0,0,0,0,0,0,0,0,0,0,54,119,177,183,186,182,186,193,218,235,215,191,187,191,198,197,177,147,99.00001,80,73,77,130,190,201,189,185,186,213,232,197,149,91,82,90,125,192,232,232,232,237,240,242,242,237,230,233,233,217,193,172,146,127,135,174,192,205,210,219,232,236,233,223,212,195,183,184,187,186,186,176,129,114,78,128,219,239,239,227,209,195,184,177,187,204,215,214,203,192,188,210,228,230,227,230,231,212,193,188,190,189,191,203,218,233,238,241,232,232,232,233,230,230,232,232,229,233,235,238,240,235,230,229,232,231,229,228,229,231,230,230,225,229,234,233,230,231,232,230,226,224,223,236,234,227,218,223,221,222,220,218,217,216,214,215,215,215,214,214,217,222,228,228,227,225,224,221,217,215,213,213,213,213,213,209,206,207,208,203,196,191,189,189,191,197,201,198,193,187,181,186,173,103,15,0,0,0,0,1,0,0,0,0,0,0,0,0,0,0,0,0,0,0,0,0,0,0,0,0,0,0,0,0,0,0,0,0,0,0,0,0,0,0,0,0,0,0,0,0,0,0,0,0,0,0,0,0,0,0,0,0,0,0,0,0,0,0,0,0,0,0,0,0,0,0,0,0,0,0,0,0,0,0,0,0,0,0,0,0,0,0,0,0,0,0,0,0,0,0,0,0,0,0,0,0,0,0,0,0,0,0,0,0,0,0
0,0,0,0,0,0,0,0,0,0,0,0,0,0,0,0,0,0,0,0,0,0,0,0,0,0,0,0,0,0,0,0,0,0,0,0,0,0,0,0,0,0,0,0,0,0,0,0,0,0,0,0,0,0,0,0,0,0,0,0,0,0,0,0,0,0,0,0,0,0,0,0,0,0,0,0,0,0,0,0,0,0,0,0,0,0,0,0,0,0,0,0,0,0,0,0,0,0,0,0,0,0,0,0,0,0,0,0,0,0,0,1,5,16,24,5,0,28,75,117,155,163,164,167,170,172,173,175,180,185,189,187,187,189,193,199,204,207,210,209,209,221,218,200,176,166,139,52,0,0,3,19,45,78,106,117,122,122,120,120,119,120,119,116,114,117,120,121,122,125,128,130,131,133,135,135,135,136,138,141,141,144,146,147,147,148,149,152,153,153,152,151,148,146,146,150,154,158,159,155,151,154,160,163,165,168,171,175,178,176,175,175,175,176,177,177,177,177,178,177,178,178,179,180,182,181,180,178,177,178,180,186,191,194,195,195,195,195,194,195,196,197,198,200,200,200,200,206,210,210,211,209,209,210,209,210,212,213,214,214,215,217,217,213,210,217,225,231,236,237,236,236,238,241,242,240,238,238,241,243,247,248,246,241,234,229,226,227,227,221,216,226,216,143,37,4,10,30,48,24,0,0,0,74,158,162,149,145,140,136,134,136,136,131,126,133,128,91,41,5,0,0,0,0,0,0,3,16,32,32,28,21,8,0,0,9,34,49,59,63,59,60,72,116,180,131,62,63,79,78,77,68,52,31,10,7,14,41,67,68,63,53,58,106,176,135,43,16,15,20,39,96.00001,179,200,210,232,249,254,246,211,177,176,174,132,62,46,47,48,46,57,58,84,132,124,167,177,169,156,124,79,61,57,71,65,55,54,41,19,13,48,109,187,213,182,134,81,57,58,63,90,117,139,121,74,64,106,177,181,182,182,171,129,60,57,64,60,65,100,139,197,211,196,178,180,182,176,171,176,175,190,204,210,216,236,249,223,201,200,207,205,209,231,245,253,244,202,171,202,242,249,246,248,243,211,179,169,173,205,237,240,231,212,204,219,237,239,237,233,228,228,228,227,228,230,234,237,238,242,243,243,242,237,230,226,222,220,220,221,221,220,218,225,229,220,209,201,197,199,203,209,213,208,203,198,192,199,186,107,2,0,0,0,0,1,2,0,0,0,0,0,0,0,0,0,0,0,0,0,0,0,0,0,0,0,0,0,0,0,0,0,0,0,0,0,0,0,0,0,0,0,0,0,0,0,0,0,0,0,0,0,0,0,0,0,0,0,0,0,0,0,0,0,0,0,0,0,0,0,0,0,0,0,0,0,0,0,0,0,0,0,0,0,0,0,0,0,0,0,0,0,0,0,0,0,0,0,0,0,0,0,0,0,0,0,0,0,0,0,0,0
0,0,0,0,0,0,0,0,0,0,0,0,0,0,0,0,0,0,0,0,0,0,0,0,0,0,0,0,0,0,0,0,0,0,0,0,0,0,0,0,0,0,0,0,0,0,0,0,0,0,0,0,0,0,0,0,0,0,0,0,0,0,0,0,0,0,0,0,0,0,0,0,0,0,0,0,0,0,0,0,0,0,0,0,0,0,0,0,0,0,0,0,0,0,0,0,0,0,0,0,0,0,0,0,0,0,0,0,0,0,0,12,31,41,43,15,0,58,126,156,169,169,164,166,168,170,171,175,181,186,189,186,184,187,191,197,201,201,203,211,222,237,239,244,238,232,211,126,2,0,0,0,16,57,92,109,115,125,132,133,131,132,130,129,130,131,132,132,133,136,139,142,143,145,148,148,148,149,149,151,153,156,159,158,159,160,161,162,163,164,165,164,162,160,158,161,164,167,170,166,161,165,170,173,176,180,183,185,185,184,183,183,184,185,186,185,187,189,191,190,189,188,189,191,192,192,191,189,188,190,193,198,202,205,206,209,210,208,208,209,210,211,212,212,213,215,217,223,228,226,226,227,226,225,224,223,223,224,226,229,229,230,231,229,226,229,236,243,245,240,230,222,216,218,223,234,245,247,245,237,225,215,210,217,226,231,232,239,239,227,210,201,179,100,0,0,0,0,0,0,0,0,0,60,146,157,150,146,139,135,133,133,132,129,125,126,119,85,46,24,17,15,14,17,24,34,49,64,78,80,79,68,54,36,17,0,0,0,0,0,0,0,7,58,98.00001,54,5,10,23,24,20,9,0,0,0,0,0,0,0,0,0,0,0,45,84,50,0,0,0,0,2,40,87,104,126,175,191,197,188,151,85,82,77,40,0,0,2,2,3,1,2,14,42,63,70,79,81,66,40,16,5,7,7,4,3,3,5,0,0,7,36,87,121,117,46,22,8,3,5,29,51,52,44,19,4,44,85,90,84,86,80,43,3,2,8,4,13,41,81,136,144,105,83,87,92,80,79,82,88,100,136,136,138,180,184,167,120,141,142,118,131,166,207,197,187,140,78,125,196,199,194,202,192,156,98.00001,75,83,124,177,187,173,157,124,169,188,205,221,230,239,238,236,237,239,242,242,238,231,226,221,218,219,230,241,238,233,228,225,225,224,218,208,199,192,189,190,197,209,215,221,226,230,227,221,210,201,215,208,121,8,0,0,0,0,1,2,0,0,0,0,0,0,0,0,0,0,0,0,0,0,0,0,0,0,0,0,0,0,0,0,0,0,0,0,0,0,0,0,0,0,0,0,0,0,0,0,0,0,0,0,0,0,0,0,0,0,0,0,0,0,0,0,0,0,0,0,0,0,0,0,0,0,0,0,0,0,0,0,0,0,0,0,0,0,0,0,0,0,0,0,0,0,0,0,0,0,0,0,0,0,0,0,0,0,0,0,0,0,0,0,0
0,0,0,0,0,0,0,0,0,0,0,0,0,0,0,0,0,0,0,0,0,0,0,0,0,0,0,0,0,0,0,0,0,0,0,0,0,0,0,0,0,0,0,0,0,0,0,0,0,0,0,0,0,0,0,0,0,0,0,0,0,0,0,0,0,0,0,0,0,0,0,0,0,0,0,0,0,0,0,0,0,0,0,0,0,0,0,0,0,0,0,0,0,0,0,0,0,0,0,0,0,0,0,0,0,0,0,0,0,0,0,32,67,65,49,2,0,68,161,171,163,163,165,167,170,171,175,179,183,188,190,190,190,190,191,198,204,205,207,212,217,223,226,229,233,247,237,151,30,0,0,0,0,15,57,78,90,120,145,150,142,140,140,143,146,144,140,141,140,142,146,151,155,156,157,157,158,158,159,160,161,165,166,167,169,170,171,173,173,177,179,176,173,171,169,169,170,175,179,176,173,175,179,182,185,189,192,190,187,186,186,187,189,190,190,193,196,203,206,203,199,199,200,201,201,203,201,199,196,200,205,208,210,212,214,218,223,223,223,225,224,225,227,228,229,233,235,248,252,250,247,253,251,248,243,237,232,236,242,246,248,251,250,249,246,243,246,251,250,236,210,185,166,161,171,211,248,252,248,214,171,142,112,168,209,230,243,252,251,225,196,124,78,28,0,0,0,0,0,0,0,0,0,51,126,144,149,145,138,135,132,128,126,125,125,120,107,63,16,34,72,88,82,68,88,96.00001,105,112,116,118,119,119,114,104,75,29,0,0,0,0,2,6,16,35,47,36,27,29,25,23,16,0,0,0,0,0,0,0,0,0,0,0,0,7,30,25,20,15,15,9,7,16,33,44,50,58,66,69,65,47,29,22,22,17,14,14,15,12,8,3,0,5,14,14,15,22,27,24,22,19,15,20,23,22,21,23,23,17,10,14,22,34,44,35,24,24,24,22,20,24,28,28,23,15,9,16,27,25,22,23,23,20,15,16,19,17,20,28,35,40,39,33,28,27,27,25,27,27,29,35,42,44,47,58,66,57,44,42,42,40,43,57,70,73,57,32,16,39,66,69,66,70,70,49,28,17,19,36,55,59,55,51,48,46,60,101,174,213,247,252,246,244,247,249,246,229,209,189,166,162,169,205,249,253,251,235,221,227,221,203,180,140,105,92,128,182,217,231,238,243,247,246,243,225,187,226,232,146,22,22,0,0,0,0,0,0,0,0,0,0,0,0,0,0,0,0,0,0,0,0,0,0,0,0,0,0,0,0,0,0,0,0,0,0,0,0,0,0,0,0,0,0,0,0,0,0,0,0,0,0,0,0,0,0,0,0,0,0,0,0,0,0,0,0,0,0,0,0,0,0,0,0,0,0,0,0,0,0,0,0,0,0,0,0,0,0,0,0,0,0,0,0,0,0,0,0,0,0,0,0,0,0,0,0,0,0,0,0,0,0
0,0,0,0,0,0,0,0,0,0,0,0,0,0,0,0,0,0,0,0,0,0,0,0,0,0,0,0,0,0,0,0,0,0,0,0,0,0,0,0,0,0,0,0,0,0,0,0,0,0,0,0,0,0,0,0,0,0,0,0,0,0,0,0,0,0,0,0,0,0,0,0,0,0,0,0,0,0,0,0,0,0,0,0,0,0,0,0,0,0,0,0,0,0,0,0,0,0,0,0,0,0,0,0,0,0,0,0,0,0,4,54,95,83,61,20,17,91,176,179,163,164,167,170,173,175,178,182,186,188,190,191,192,192,193,199,204,206,208,212,216,218,219,225,233,251,250,194,126,41,0,0,0,2,21,32,45,76,124,133,133,143,150,154,157,158,157,157,155,156,156,162,167,167,169,169,171,170,170,171,173,175,176,178,180,180,181,181,182,187,191,189,187,184,182,181,183,186,187,187,186,188,191,193,196,199,201,199,196,196,197,198,201,202,204,207,208,214,218,215,212,215,217,218,218,218,215,212,211,216,222,225,224,226,229,234,238,238,236,236,236,237,236,232,223,224,221,221,217,214,214,223,231,228,226,234,239,230,222,222,225,221,220,204,191,193,189,194,191,173,153,98.00001,75,74,84,124,191,195,185,149,86,51,45,76,125,178,192,216,239,229,205,151,99.00001,43,10,0,0,0,0,0,2,0,0,40,93,128,146,144,137,133,129,124,118,111,106,101,91,52,24,68,128,126,116,117,121,125,131,132,133,134,137,141,142,137,121,74,14,0,0,0,0,4,10,13,16,24,29,22,10,6,3,3,2,3,5,28,44,34,21,20,22,3,0,0,0,10,31,34,33,25,19,13,7,8,9,10,10,12,13,10,5,4,5,15,24,27,24,20,15,8,3,3,2,0,0,0,3,8,17,25,29,32,33,33,35,37,37,34,31,24,17,10,6,10,20,30,37,36,33,27,21,20,20,22,20,12,3,1,0,0,3,14,25,29,27,29,28,22,15,9,4,5,5,3,2,3,4,3,2,3,3,3,4,8,13,9,5,3,3,2,2,6,9,6,2,0,0,2,8,9,9,13,15,6,1,0,0,0,3,5,4,6,5,1,7,42,88,133,193,200,187,198,207,202,194,175,147,99.00001,81,73,75,126,207,227,231,225,215,213,200,163,119,60,22,43,94,176,226,238,233,236,242,239,236,216,190,215,215,140,30,3,2,0,0,0,0,0,0,0,0,0,0,0,0,0,0,0,0,0,0,0,0,0,0,0,0,0,0,0,0,0,0,0,0,0,0,0,0,0,0,0,0,0,0,0,0,0,0,0,0,0,0,0,0,0,0,0,0,0,0,0,0,0,0,0,0,0,0,0,0,0,0,0,0,0,0,0,0,0,0,0,0,0,0,0,0,0,0,0,0,0,0,0,0,0,0,0,0,0,0,0,0,0,0,0,0,0,0,0,0,0
0,0,0,0,0,0,0,0,0,0,0,0,0,0,0,0,0,0,0,0,0,0,0,0,0,0,0,0,0,0,0,0,0,0,0,0,0,0,0,0,0,0,0,0,0,0,0,0,0,0,0,0,0,0,0,0,0,0,0,0,0,0,0,0,0,0,0,0,0,0,0,0,0,0,0,0,0,0,0,0,0,0,0,0,0,0,0,0,0,0,0,0,0,0,0,0,0,0,0,0,0,0,0,0,0,0,0,0,0,2,23,69,107,94,74,46,52,112,168,174,169,170,171,175,178,180,183,184,187,188,189,190,191,194,196,199,202,204,208,212,216,218,220,223,229,238,241,235,212,142,44,10,1,0,0,0,3,24,57,96.00001,108,137,160,164,162,171,179,179,178,170,163,166,174,175,177,179,181,180,179,180,181,183,184,185,186,186,185,185,185,193,199,199,198,195,192,194,199,196,193,193,195,197,200,204,206,208,209,209,207,209,211,212,214,217,220,220,219,222,225,225,227,230,234,240,243,237,228,224,227,237,246,246,244,247,251,254,255,250,245,245,245,247,243,228,207,184,174,153,111,134,140,134,178,177,178,215,244,214,176,171,168,154,135,90,62,62,66,66,62,50,37,28,17,19,19,40,60,63,60,43,24,8,14,25,46,53,66,133,207,242,242,214,170,108,73,28,0,0,0,0,5,0,1,31,72,118,145,145,138,134,129,119,108,91,80,78,74,61,63,106,139,136,125,121,122,124,129,131,131,130,132,137,139,144,139,106,61,20,0,0,0,0,2,8,17,22,17,3,0,0,0,23,57,61,58,96.00001,138,129,110,112,111,61,8,0,0,16,37,41,37,34,31,27,25,29,30,29,28,30,32,32,31,34,37,37,33,34,33,32,30,25,21,17,14,14,17,20,24,31,36,41,43,43,44,45,46,46,45,44,44,41,37,33,32,35,40,45,49,49,47,43,39,36,36,39,36,31,25,23,22,23,27,31,33,36,36,37,36,35,34,33,32,32,31,30,29,30,30,24,19,21,24,24,23,28,32,25,20,21,23,21,19,21,23,21,20,21,22,21,20,22,23,29,30,25,19,17,19,20,21,21,23,22,23,28,30,28,31,51,71,67,61,87,109,117,64,58,39,29,16,5,19,57,108,171,209,207,197,188,166,101,29,0,0,40,99.00001,186,239,231,208,200,211,214,209,186,161,169,167,101,13,0,0,2,1,0,0,0,0,0,0,0,0,0,0,0,0,0,0,0,0,0,0,0,0,0,0,0,0,0,0,0,0,0,0,0,0,0,0,0,0,0,0,0,0,0,0,0,0,0,0,0,0,0,0,0,0,0,0,0,0,0,0,0,0,0,0,0,0,0,0,0,0,0,0,0,0,0,0,0,0,0,0,0,0,0,0,0,0,0,0,0,0,0,0,0,0,0,0,0,0,0,0,0,0,0,0,0,0,0,0,0
0,0,0,0,0,0,0,0,0,0,0,0,0,0,0,0,0,0,0,0,0,0,0,0,0,0,0,0,0,0,0,0,0,0,0,0,0,0,0,0,0,0,0,0,0,0,0,0,0,0,0,0,0,0,0,0,0,0,0,0,0,0,0,0,0,0,0,0,0,0,0,0,0,0,0,0,0,0,0,0,0,0,0,0,0,0,0,0,0,0,0,0,0,0,0,0,0,0,0,0,0,0,0,0,1,0,0,0,0,9,40,82,116,100,78,61,70,126,164,173,172,173,174,178,179,183,184,186,188,189,190,191,192,196,198,200,201,203,208,212,216,218,220,222,226,230,235,253,252,203,137,75,49,19,0,0,0,0,22,33,52,90,126,131,130,147,166,169,168,170,172,180,189,192,193,194,192,191,190,190,191,191,191,194,197,196,194,192,192,199,207,208,208,205,205,209,214,211,207,209,211,215,219,221,224,225,224,225,226,223,224,227,228,229,229,230,232,232,232,235,237,235,231,227,224,222,221,230,237,234,227,226,226,226,228,231,229,214,196,192,193,192,185,170,149,101,76,59,46,43,52,71,83,83,88,130,198,151,86,81,81,67,47,23,3,3,8,5,6,1,0,0,2,1,0,3,6,5,3,2,0,3,3,6,6,3,19,71,130,190,204,197,181,145,104,59,0,0,0,2,6,2,1,19,49,103,137,138,129,121,113,104,94,76,67,68,80,105,116,138,146,141,131,128,127,128,130,131,131,130,129,134,139,145,146,128,103,47,0,0,0,0,0,1,8,12,7,6,5,5,24,79,138,141,132,165,188,183,169,171,167,124,66,15,0,19,47,51,49,48,46,44,44,44,45,45,45,46,47,49,50,53,55,50,44,42,41,41,41,37,32,28,24,25,30,30,33,43,49,54,55,57,57,57,57,57,54,53,53,52,51,49,48,51,54,59,59,60,59,54,50,49,50,51,50,46,42,42,42,44,47,46,46,46,47,47,48,49,49,51,53,51,50,49,49,48,47,41,34,36,42,42,41,44,44,40,36,37,42,40,37,39,39,39,39,43,46,42,37,37,39,40,41,40,37,41,42,40,36,36,36,32,31,37,39,24,10,15,14,12,12,36,55,44,20,14,3,1,2,0,0,17,47,88,119,174,176,149,142,54,0,0,0,36,97.00001,171,203,181,140,129,130,159,145,101,83,86,77,37,0,0,0,0,0,0,0,0,0,0,0,0,0,0,0,0,0,0,0,0,0,0,0,0,0,0,0,0,0,0,0,0,0,0,0,0,0,0,0,0,0,0,0,0,0,0,0,0,0,0,0,0,0,0,0,0,0,0,0,0,0,0,0,0,0,0,0,0,0,0,0,0,0,0,0,0,0,0,0,0,0,0,0,0,0,0,0,0,0,0,0,0,0,0,0,0,0,0,0,0,0,0,0,0,0,0,0,0,0,0,0,0
0,0,0,0,0,0,0,0,0,0,0,0,0,0,0,0,0,0,0,0,0,0,0,0,0,0,0,0,0,0,0,0,0,0,0,0,0,0,0,0,0,0,0,0,0,0,0,0,0,0,0,0,0,0,0,0,0,0,0,0,0,0,0,0,0,0,0,0,0,0,0,0,0,0,0,0,0,0,0,0,0,0,0,0,0,0,0,0,0,0,0,0,0,0,0,0,0,0,0,0,0,0,0,0,0,0,0,0,4,20,43,88,116,100,76,59,68,123,166,173,171,173,176,177,178,180,182,185,189,190,191,193,194,197,199,201,202,204,208,212,216,218,220,222,226,228,231,240,246,237,215,192,155,90,3,0,0,0,4,3,2,22,43,37,36,76,125,131,127,158,189,205,211,213,211,206,202,201,200,201,201,198,195,202,207,206,203,200,198,204,210,211,210,211,214,220,227,226,225,227,233,233,242,245,247,249,250,251,250,245,239,240,244,240,237,242,246,246,246,246,244,230,209,190,172,184,206,233,246,210,169,168,176,174,172,177,176,132,72,63,70,62,59,53,47,32,17,16,17,24,29,29,25,25,31,51,65,48,27,23,29,27,23,13,7,14,21,16,14,15,19,20,22,25,27,23,19,19,19,17,16,27,29,25,23,27,33,49,62,75,81,95,129,74,36,10,0,0,0,1,5,1,0,12,33,88,129,129,121,99.00001,84,73,69,68,68,92,129,130,135,138,140,136,131,131,132,132,134,134,133,131,130,130,133,138,145,155,142,76,0,0,0,0,0,0,0,0,0,24,60,75,104,150,183,187,182,190,197,190,187,192,192,167,127,52,0,16,60,66,63,61,59,58,57,57,59,62,64,62,60,61,63,60,58,54,51,48,46,44,43,41,35,32,31,30,28,23,25,39,53,62,66,67,66,64,64,65,64,61,58,60,62,61,59,61,64,65,65,65,65,62,59,59,60,61,59,57,53,54,57,60,63,61,59,59,60,59,60,60,62,64,64,66,65,63,61,59,58,51,46,49,54,54,54,55,55,53,51,54,55,54,53,54,57,58,59,61,62,63,62,58,53,50,48,49,53,55,55,53,49,48,46,42,37,45,50,43,32,27,23,28,32,36,40,41,41,37,32,29,29,27,28,31,39,42,55,110,178,173,138,58,0,0,0,49,100,135,123,74,43,47,55,49,41,32,22,22,20,5,0,0,1,0,0,0,0,0,0,0,0,0,0,0,0,0,0,0,0,0,0,0,0,0,0,0,0,0,0,0,0,0,0,0,0,0,0,0,0,0,0,0,0,0,0,0,0,0,0,0,0,0,0,0,0,0,0,0,0,0,0,0,0,0,0,0,0,0,0,0,0,0,0,0,0,0,0,0,0,0,0,0,0,0,0,0,0,0,0,0,0,0,0,0,0,0,0,0,0,0,0,0,0,0,0,0,0,0,0,0,0,0
0,0,0,0,0,0,0,0,0,0,0,0,0,0,0,0,0,0,0,0,0,0,0,0,0,0,0,0,0,0,0,0,0,0,0,0,0,0,0,0,0,0,0,0,0,0,0,0,0,0,0,0,0,0,0,0,0,0,0,0,0,0,0,0,0,0,0,0,0,0,0,0,0,0,0,0,0,0,0,0,0,0,0,0,0,0,0,0,0,0,0,0,0,0,0,0,0,0,0,0,0,0,0,0,0,0,0,0,7,40,51,101,123,103,75,46,49,110,169,177,173,175,178,179,180,182,184,186,190,191,192,194,197,199,201,203,203,205,208,212,216,218,220,222,225,227,229,234,239,255,255,231,181,72,8,0,0,2,2,0,0,0,5,0,0,29,64,58,61,100,146,171,193,218,228,228,222,220,217,217,216,215,214,217,222,222,217,213,210,214,217,218,218,223,230,234,237,239,239,228,216,219,225,223,227,230,230,232,229,209,190,191,197,191,185,196,208,210,207,212,205,185,157,96.00001,84,97.00001,127,180,189,150,82,78,86,82,77,82,77,46,14,6,8,7,5,3,5,3,0,2,8,15,20,9,2,3,7,9,8,4,1,2,7,15,20,23,24,29,31,27,24,29,35,37,40,44,47,41,33,32,36,35,35,41,44,42,40,43,43,35,27,17,13,33,53,33,7,0,0,0,0,1,3,0,0,0,7,44,92,91,84,72,67,69,79,107,112,127,147,149,140,138,136,133,131,132,134,134,134,132,131,131,132,131,132,137,146,164,164,105,20,0,3,4,10,27,41,45,46,78,133,156,174,191,211,209,207,206,202,200,198,205,206,200,174,79,0,23,74,81,76,75,73,72,71,71,73,77,81,77,74,75,76,72,67,65,62,59,54,50,45,40,33,31,31,27,23,17,20,39,64,74,77,78,77,75,74,74,74,71,67,71,75,74,73,74,76,76,75,76,76,73,70,71,72,72,72,69,67,69,73,75,78,77,72,73,73,73,73,74,75,76,78,79,79,77,76,75,73,67,62,65,69,69,67,68,69,69,68,70,70,69,69,71,74,75,75,75,76,77,78,75,69,63,59,61,66,67,67,65,62,61,57,51,49,55,63,59,51,42,33,37,43,40,36,46,54,55,51,51,52,50,51,44,37,19,15,67,119,151,135,55,0,0,0,39,76,84,41,24,6,17,19,10,3,3,3,0,0,0,0,0,1,0,0,0,0,0,0,0,0,0,0,0,0,0,0,0,0,0,0,0,0,0,0,0,0,0,0,0,0,0,0,0,0,0,0,0,0,0,0,0,0,0,0,0,0,0,0,0,0,0,0,0,0,0,0,0,0,0,0,0,0,0,0,0,0,0,0,0,0,0,0,0,0,0,0,0,0,0,0,0,0,0,0,0,0,0,0,0,0,0,0,0,0,0,0,0,0,0,0,0,0,0,0,0,0,0,0,0,0,0
0,0,0,0,0,0,0,0,0,0,0,0,0,0,0,0,0,0,0,0,0,0,0,0,0,0,0,0,0,0,0,0,0,0,0,0,0,0,0,0,0,0,0,0,0,0,0,0,0,0,0,0,0,0,0,0,0,0,0,0,0,0,0,0,0,0,0,0,0,0,0,0,0,0,0,0,0,0,0,0,0,0,0,0,0,0,0,0,0,0,0,0,0,0,0,0,0,0,0,0,0,0,0,0,0,0,0,0,3,24,61,112,134,111,74,23,13,89,174,185,177,178,180,183,185,188,189,190,190,191,192,195,198,201,203,204,204,206,209,213,216,218,220,222,225,228,231,230,230,247,253,207,150,51,0,0,14,19,20,21,20,19,15,7,2,6,8,3,2,16,46,82,144,204,244,252,248,242,237,237,239,244,246,245,240,238,233,229,225,225,226,226,230,241,252,250,247,254,252,216,177,168,166,171,174,175,174,176,169,129,65,58,73,72,66,89,102,139,110,141,129,77,44,29,23,33,47,62,68,45,15,22,23,23,17,17,21,21,20,21,24,23,23,22,20,20,19,20,24,30,34,32,30,34,36,29,21,21,23,27,34,36,41,42,42,45,44,41,37,42,46,48,49,53,55,52,50,51,54,54,52,50,49,53,57,58,54,44,30,15,3,3,4,2,2,0,0,0,0,0,0,0,0,0,0,0,17,17,30,41,72,100,143,153,152,150,144,141,137,134,134,132,131,132,133,132,131,128,127,132,137,136,136,141,147,158,159,138,94,57,29,45,73,99.00001,147,150,156,173,189,196,198,197,200,199,195,198,199,198,198,200,198,207,193,102,1,30,95,97.00001,85,85,85,84,82,82,83,86,87,85,82,84,85,83,78,75,70,67,64,58,48,35,23,20,21,20,17,13,16,44,75,84,88,88,86,84,82,82,82,80,79,81,85,85,84,85,85,84,83,84,86,83,81,81,82,83,80,79,78,78,81,85,89,88,85,85,85,86,86,85,85,85,86,87,88,89,88,87,84,80,76,77,79,78,77,81,84,83,84,83,82,82,82,86,90,87,82,81,82,81,81,83,84,78,71,72,74,74,73,73,72,70,66,63,62,65,69,69,66,57,48,47,50,50,52,61,69,70,67,67,67,61,57,58,59,41,28,32,54,89,140,94,2,0,0,7,19,17,14,19,30,41,46,39,32,40,40,21,3,0,0,0,1,0,0,0,0,0,0,0,0,0,0,0,0,0,0,0,0,0,0,0,0,0,0,0,0,0,0,0,0,0,0,0,0,0,0,0,0,0,0,0,0,0,0,0,0,0,0,0,0,0,0,0,0,0,0,0,0,0,0,0,0,0,0,0,0,0,0,0,0,0,0,0,0,0,0,0,0,0,0,0,0,0,0,0,0,0,0,0,0,0,0,0,0,0,0,0,0,0,0,0,0,0,0,0,0,0,0,0,0,0
0,0,0,0,0,0,0,0,0,0,0,0,0,0,0,0,0,0,0,0,0,0,0,0,0,0,0,0,0,0,0,0,0,0,0,0,0,0,0,0,0,0,0,0,0,0,0,0,0,0,0,0,0,0,0,0,0,0,0,0,0,0,0,0,0,0,0,0,0,0,0,0,0,0,0,0,0,0,0,0,0,0,0,0,0,0,0,0,0,0,0,0,0,0,0,0,0,0,0,0,0,0,0,0,0,0,0,10,36,54,83,132,145,126,92,20,0,59,153,175,181,183,183,189,193,194,194,194,195,197,198,200,202,204,205,206,206,208,211,214,216,218,220,222,226,229,231,229,227,241,247,212,154,65,8,3,16,23,29,35,44,35,25,24,22,10,3,0,0,0,0,25,61,114,185,204,216,224,233,229,222,225,230,226,221,223,226,230,233,231,230,237,241,238,230,212,195,198,195,158,89,78,79,80,81,82,83,87,79,40,7,3,19,8,9,27,46,51,52,53,50,33,3,0,3,3,6,10,15,12,1,0,0,0,0,0,2,12,25,32,34,36,35,35,34,34,34,35,36,39,41,43,44,48,50,42,32,36,42,46,51,55,55,53,54,55,55,53,52,53,57,58,58,62,65,64,64,63,65,67,67,64,61,61,58,54,48,34,15,0,0,0,0,0,0,0,3,16,27,16,2,0,8,3,0,1,8,23,41,68,110,142,162,170,166,155,142,137,135,134,133,133,132,133,134,132,130,128,127,133,138,137,137,142,149,158,164,167,164,137,113,110,148,182,210,213,210,216,220,213,209,205,198,194,193,195,198,199,198,199,198,212,203,114,14,30,85,97.00001,98.00001,97.00001,97.00001,96.00001,96.00001,94,95,96.00001,96.00001,95,93,95,97.00001,94,91,87,81,79,74,65,51,32,15,9,9,9,9,6,14,49,84,95,98.00001,100,98.00001,96.00001,94,94,95,94,93,94,96.00001,97.00001,96.00001,97.00001,97.00001,96.00001,95,96.00001,97.00001,95,93,94,95,96.00001,94,93,93,93,94,97.00001,101,101,100,100,100,100,99.00001,99.00001,97.00001,95,95,96.00001,97.00001,98.00001,99.00001,98.00001,96.00001,95,93,92,92,89,87,91,95,96.00001,96.00001,95,94,94,94,98.00001,101,98.00001,93,92,92,91,91,95,96.00001,90,85,84,85,84,83,84,83,82,78,77,76,79,81,82,80,72,64,62,63,66,67,74,80,81,79,79,78,73,68,72,74,61,43,28,36,64,90,51,5,0,0,0,0,0,13,40,57,62,62,54,52,62,64,39,7,1,0,0,1,0,0,0,0,0,0,0,0,0,0,0,0,0,0,0,0,0,0,0,0,0,0,0,0,0,0,0,0,0,0,0,0,0,0,0,0,0,0,0,0,0,0,0,0,0,0,0,0,0,0,0,0,0,0,0,0,0,0,0,0,0,0,0,0,0,0,0,0,0,0,0,0,0,0,0,0,0,0,0,0,0,0,0,0,0,0,0,0,0,0,0,0,0,0,0,0,0,0,0,0,0,0,0,0,0,0,0,0,0
0,0,0,0,0,0,0,0,0,0,0,0,0,0,0,0,0,0,0,0,0,0,0,0,0,0,0,0,0,0,0,0,0,0,0,0,0,0,0,0,0,0,0,0,0,0,0,0,0,0,0,0,0,0,0,0,0,0,0,0,0,0,0,0,0,0,0,0,0,0,0,0,0,0,0,0,0,0,0,0,0,0,0,0,0,0,0,0,0,0,0,0,0,0,0,0,0,0,0,0,0,0,0,0,0,0,0,46,115,133,132,146,153,146,120,39,0,29,91,154,187,187,188,195,200,201,198,201,203,204,204,204,204,205,206,208,209,211,213,215,217,219,220,223,227,229,230,230,230,234,238,239,220,144,40,6,3,8,34,36,37,40,40,43,46,47,45,32,14,5,0,0,1,22,52,75,110,173,213,198,172,168,170,171,175,187,203,223,239,239,236,251,255,219,175,133,69,59,57,43,27,27,24,27,28,32,33,33,31,23,16,13,14,15,16,22,28,32,32,33,31,25,19,17,20,21,21,23,25,22,22,21,22,21,21,23,27,32,40,43,45,44,45,43,42,43,44,45,45,46,46,47,47,48,50,48,47,49,53,57,61,60,61,61,60,62,62,64,64,63,64,63,62,65,67,67,68,67,70,71,73,77,75,61,45,39,28,8,0,0,0,0,0,0,0,0,14,59,105,89,43,51,54,57,55,52,59,85,126,141,147,150,152,151,150,146,140,139,137,137,136,135,134,135,135,133,130,131,132,134,135,134,136,142,151,162,173,187,197,194,190,193,197,205,213,213,212,214,215,212,206,203,202,200,198,199,197,196,195,199,203,212,202,128,34,29,41,84,107,109,105,104,103,103,105,103,101,101,101,101,103,103,101,97.00001,91,89,83,70,52,30,12,3,3,3,2,1,10,50,87,101,106,108,107,106,104,106,106,105,104,104,104,103,103,104,105,105,105,105,105,105,105,105,105,106,106,107,108,108,107,109,111,111,111,112,113,111,109,105,104,104,102,101,101,102,103,103,104,105,106,103,99.00001,96.00001,94,96.00001,97.00001,98.00001,99.00001,101,101,101,102,103,104,104,103,102,101,101,101,101,101,97.00001,93,93,95,96.00001,96.00001,95,94,93,92,90,88,91,93,90,87,82,77,76,77,78,81,83,84,86,87,84,82,79,76,82,86,74,61,59,60,55,47,23,2,0,0,0,0,9,45,63,76,74,64,64,63,72,71,46,17,3,0,0,0,0,0,0,0,0,0,0,0,0,0,0,0,0,0,0,0,0,0,0,0,0,0,0,0,0,0,0,0,0,0,0,0,0,0,0,0,0,0,0,0,0,0,0,0,0,0,0,0,0,0,0,0,0,0,0,0,0,0,0,0,0,0,0,0,0,0,0,0,0,0,0,0,0,0,0,0,0,0,0,0,0,0,0,0,0,0,0,0,0,0,0,0,0,0,0,0,0,0,0,0,0,0,0,0,0,0,0,0,0
0,0,0,0,0,0,0,0,0,0,0,0,0,0,0,0,0,0,0,0,0,0,0,0,0,0,0,0,0,0,0,0,0,0,0,0,0,0,0,0,0,0,0,0,0,0,0,0,0,0,0,0,0,0,0,0,0,0,0,0,0,0,0,0,0,0,0,0,0,0,0,0,0,0,0,0,0,0,0,0,0,0,0,0,0,0,0,0,0,0,0,0,0,0,0,0,0,0,0,0,0,0,0,0,0,0,0,69,159,170,162,163,164,159,139,79,0,3,46,130,181,198,195,200,205,206,206,208,209,209,209,207,206,207,208,210,211,213,215,217,219,219,220,223,227,228,229,230,232,232,234,248,253,194,133,54,12,12,19,31,34,42,46,51,58,62,63,57,45,31,13,0,0,0,0,4,36,89,149,112,82,76,76,77,82,96.00001,117,170,189,183,181,197,197,162,86,42,12,8,1,0,2,2,5,6,6,10,13,12,12,16,21,22,19,23,23,22,22,27,25,27,27,29,31,34,35,36,35,35,34,37,37,40,39,41,41,44,47,49,54,57,59,58,55,52,53,57,58,55,54,54,52,53,54,55,58,60,61,65,68,70,73,72,71,70,70,71,74,77,77,75,73,72,71,72,74,75,75,69,63,59,58,62,60,42,21,8,3,0,0,0,4,0,1,12,28,40,60,112,150,134,103,115,121,123,123,114,117,141,165,170,168,157,146,143,141,140,139,138,137,138,138,137,136,136,136,133,130,132,135,135,134,133,134,141,150,163,177,198,216,226,231,229,224,221,219,218,217,215,212,208,204,203,203,201,200,199,198,196,196,200,205,208,199,136,62,16,14,61,117,123,117,116,115,115,115,113,111,112,111,112,113,114,112,109,105,102,94,78,58,34,13,2,0,0,0,7,28,65,93,109,115,119,120,120,118,120,120,119,117,115,114,113,113,114,115,116,118,118,118,118,117,118,118,119,119,122,123,121,120,120,121,122,124,126,125,123,119,117,115,113,114,113,112,113,114,115,115,118,120,116,111,108,106,104,105,108,110,113,114,114,113,112,111,113,115,114,112,112,112,112,111,106,104,105,108,110,111,109,108,107,106,106,104,105,104,102,98.00001,95,91,91,91,92,93,92,94,96.00001,96.00001,95,93,90,90,93,95,88,80,82,84,64,35,15,7,1,0,0,0,16,48,71,82,82,79,76,75,80,82,67,47,17,0,0,0,1,1,0,0,0,0,0,0,0,0,0,0,0,0,0,0,0,0,0,0,0,0,0,0,0,0,0,0,0,0,0,0,0,0,0,0,0,0,0,0,0,0,0,0,0,0,0,0,0,0,0,0,0,0,0,0,0,0,0,0,0,0,0,0,0,0,0,0,0,0,0,0,0,0,0,0,0,0,0,0,0,0,0,0,0,0,0,0,0,0,0,0,0,0,0,0,0,0,0,0,0,0,0,0,0,0,0,0,0
0,0,0,0,0,0,0,0,0,0,0,0,0,0,0,0,0,0,0,0,0,0,0,0,0,0,0,0,0,0,0,0,0,0,0,0,0,0,0,0,0,0,0,0,0,0,0,0,0,0,0,0,0,0,0,0,0,0,0,0,0,0,0,0,0,0,0,0,0,0,0,0,0,0,0,0,0,0,0,0,0,0,0,0,0,0,0,0,0,0,0,0,0,0,0,0,0,0,0,0,0,0,0,0,2,3,20,94,170,176,166,163,167,160,143,101,28,1,13,93,192,210,206,204,200,205,210,211,211,211,211,210,210,211,212,213,213,214,215,217,219,220,221,223,226,227,228,229,231,233,235,239,243,234,212,144,44,19,5,12,34,41,43,48,52,57,60,65,66,61,49,33,13,2,0,0,9,28,54,44,29,24,23,20,23,36,41,61,68,66,60,61,64,46,29,29,24,25,21,21,21,23,27,32,37,39,37,35,31,32,33,32,33,35,35,35,37,40,40,43,44,45,44,46,46,46,47,49,50,50,49,52,52,52,53,54,59,63,68,69,69,68,65,62,62,64,67,64,60,60,61,62,64,65,67,69,70,73,75,77,80,81,80,79,79,82,85,86,86,85,81,81,79,79,79,85,86,68,49,29,14,14,10,5,0,0,0,0,0,19,42,40,44,62,107,123,127,148,154,155,156,160,161,160,159,159,157,157,158,157,156,152,147,143,142,141,140,138,137,137,137,136,135,136,137,134,130,132,134,134,134,134,136,141,149,162,176,196,213,220,222,222,221,220,220,219,218,215,210,205,200,202,203,200,198,199,199,198,197,201,204,210,197,140,53,14,2,52,126,135,129,128,126,126,126,126,125,124,122,123,124,124,123,123,120,113,102,85,66,44,20,3,0,0,0,27,61,83,99.00001,114,123,127,127,128,129,129,128,126,125,123,122,121,120,119,120,123,125,127,129,128,126,127,127,127,127,130,131,131,131,131,131,132,133,135,135,134,131,128,125,123,123,123,124,125,126,125,124,128,130,126,120,117,115,113,111,116,123,125,126,126,124,122,120,121,123,122,120,119,118,118,118,114,109,113,119,121,122,121,120,119,118,119,121,119,116,112,109,105,102,100,99.00001,101,104,104,105,106,107,108,106,106,102,101,100,97.00001,95,99.00001,98.00001,82,58,35,20,5,0,0,0,16,44,63,71,76,86,87,82,86,92,95,88,43,0,0,1,0,0,0,0,0,0,0,0,0,0,0,0,10,25,6,0,0,0,0,0,0,0,0,0,0,0,0,0,0,0,0,0,0,0,0,0,0,0,0,0,0,0,0,0,0,0,0,0,0,0,0,0,0,0,0,0,0,0,0,0,0,0,0,0,0,0,0,0,0,0,0,0,0,0,0,0,0,0,0,0,0,0,0,0,0,0,0,0,0,0,0,0,0,0,0,0,0,0,0,0,0,0,0,0,0,0,0,0,0
0,0,0,0,0,0,0,0,0,0,0,0,0,0,0,0,0,0,0,0,0,0,0,0,0,0,0,0,0,0,0,0,0,0,0,0,0,0,0,0,0,0,0,0,0,0,0,0,0,0,0,0,0,0,0,0,0,0,0,0,0,0,0,0,0,0,0,0,0,0,0,0,0,0,0,0,0,0,0,0,0,0,0,0,0,0,0,0,0,0,0,0,0,0,0,0,0,0,0,0,0,0,0,0,2,4,27,103,170,178,176,182,181,156,121,130,111,32,0,51,141,177,196,210,207,213,216,213,214,214,214,214,214,215,216,215,215,216,217,219,221,222,223,224,226,226,227,229,231,234,236,236,235,255,255,205,132,54,12,16,30,35,39,44,48,51,57,66,75,75,71,64,49,32,14,0,0,0,13,4,2,1,0,0,0,2,7,9,16,13,7,6,7,8,13,24,40,40,39,37,35,41,46,49,53,54,52,50,46,46,46,44,44,46,48,50,50,52,53,57,58,59,57,58,59,58,60,63,65,64,63,63,64,64,66,68,71,76,79,81,82,80,76,74,74,77,79,76,72,71,71,72,74,76,76,79,82,82,86,88,89,91,92,89,88,90,93,96.00001,97.00001,94,92,91,91,89,87,84,77,57,30,5,0,0,1,9,20,22,29,28,35,69,107,114,111,129,149,158,165,162,159,165,172,177,179,175,170,171,171,166,156,151,150,148,146,143,141,140,139,138,137,137,137,136,135,137,138,134,131,133,135,135,134,135,138,142,149,161,176,197,214,220,220,220,220,220,219,218,217,214,210,204,200,201,202,199,197,198,200,199,198,202,202,211,200,146,89,16,0,58,138,147,141,140,140,141,139,140,139,139,137,137,139,137,136,137,135,127,115,101,82,54,24,4,0,0,3,41,81,99.00001,110,124,135,137,139,141,143,140,139,139,137,136,134,131,130,127,128,131,137,140,141,140,139,137,137,138,138,140,142,144,144,142,142,144,145,146,145,144,143,140,137,136,134,135,136,137,137,136,135,138,141,136,130,128,127,124,122,129,136,140,141,141,139,136,132,132,133,132,131,131,130,131,130,125,120,126,132,136,137,137,135,134,133,136,138,137,131,128,123,119,115,113,112,114,116,116,116,117,117,118,118,117,116,112,108,108,109,113,112,98.00001,80,47,22,4,0,0,0,30,63,76,73,76,100,103,100,98.00001,99.00001,103,97.00001,57,0,0,2,0,0,0,0,0,0,0,0,0,0,1,14,47,67,42,0,0,0,0,0,0,0,0,0,0,0,0,0,0,0,0,0,0,0,0,0,0,0,0,0,0,0,0,0,0,0,0,0,0,0,0,0,0,0,0,0,0,0,0,0,0,0,0,0,0,0,0,0,0,0,0,0,0,0,0,0,0,0,0,0,0,0,0,0,0,0,0,0,0,0,0,0,0,0,0,0,0,0,0,0,0,0,0,0,0,0,0,0,0
0,0,0,0,0,0,0,0,0,0,0,0,0,0,0,0,0,0,0,0,0,0,0,0,0,0,0,0,0,0,0,0,0,0,0,0,0,0,0,0,0,0,0,0,0,0,0,0,0,0,0,0,0,0,0,0,0,0,0,0,0,0,0,0,0,0,0,0,0,0,0,0,0,0,0,0,0,0,0,0,0,0,0,0,0,0,0,0,0,0,0,0,0,0,0,0,0,0,0,0,0,0,0,0,0,0,5,82,147,174,185,194,189,153,88,148,183,105,0,0,37,91,174,210,227,220,219,211,218,218,218,218,218,219,219,218,217,218,219,221,223,224,226,227,227,228,228,230,232,235,237,238,240,244,245,243,217,144,46,17,23,25,33,41,46,49,55,63,70,74,75,72,68,60,47,21,0,7,30,30,23,22,21,20,20,17,17,24,37,30,30,27,24,29,35,43,46,50,50,44,41,45,52,53,54,55,60,61,58,55,53,51,50,53,58,61,64,65,65,67,67,67,67,66,66,66,69,71,73,74,73,72,71,71,73,75,78,82,85,88,89,88,87,85,85,86,87,86,84,82,82,81,82,85,87,88,92,95,96.00001,100,101,101,100,96.00001,93,95,99.00001,103,105,104,103,102,102,101,95,74,49,20,8,0,0,0,28,51,76,105,119,115,115,130,147,149,146,148,152,158,163,159,156,159,161,168,170,165,160,161,163,161,159,153,147,145,143,141,140,139,138,138,137,138,137,136,135,137,137,134,131,133,135,135,134,136,139,143,149,161,176,199,218,222,220,220,218,217,215,214,213,213,210,207,204,201,201,198,195,197,200,200,199,200,201,207,202,160,106,32,0,57,145,156,150,150,151,151,149,149,149,148,147,148,149,147,146,147,147,141,129,117,98.00001,63,23,3,0,0,6,48,92,113,126,136,142,145,149,153,153,152,149,148,148,147,146,143,140,135,134,141,148,150,149,149,147,148,147,146,145,147,149,152,151,151,151,153,155,155,154,154,153,150,147,145,142,144,146,146,146,144,143,146,148,143,137,136,135,133,133,140,147,152,154,155,154,150,145,143,140,141,142,142,142,143,141,136,131,136,143,148,150,151,150,148,146,151,152,149,144,140,136,132,127,125,124,124,125,123,122,122,121,121,121,120,122,120,118,118,118,118,118,111,95,59,17,0,0,0,8,52,96.00001,96.00001,88,99.00001,113,119,119,111,95,76,62,47,5,2,2,0,0,0,0,0,0,12,31,9,0,10,51,100,111,80,24,1,0,0,2,0,0,0,0,0,0,0,0,0,0,0,0,0,0,0,0,0,0,0,0,0,0,0,0,0,0,0,0,0,0,0,0,0,0,0,0,0,0,0,0,0,0,0,0,0,0,0,0,0,0,0,0,0,0,0,0,0,0,0,0,0,0,0,0,0,0,0,0,0,0,0,0,0,0,0,0,0,0,0,0,0,0,0,0,0,0,0,0,0
