0,0,0,0,0,0,0,0,0,0,0,0,0,0,0,0,0,0,0,0,0,0,0,0,0,0,0,0,0,0,0,0,0,0,0,0,0,0,0,0,0,0,0,0,0,0,0,0,0,0,0,0,0,0,0,0,0,0,0,0,0,0,0,0,0,0,0,0,0,0,0,0,0,0,0,0,0,0,0,0,0,0,0,0,0,0,0,0,0,0,0,0,0,0,0,0,0,0,0,0,0,0,0,0,0,0,0,0,0,0,0,0,0,0,0,0,0,0,0,0,0,76,0,70,0,0,0,0,0,93,98.00001,87,105,94,102,104,119,107,118,113,108,97.00001,104,101,105,101,112,113,119,117,125,120,0,118,120,118,118,115,127,124,130,131,136,127,143,133,138,144,147,140,136,139,137,136,141,152,162,162,165,163,169,163,165,162,160,153,153,155,167,168,167,167,164,156,160,161,166,168,170,163,162,158,162,164,171,177,182,180,177,184,181,172,175,176,173,174,180,172,177,172,179,176,183,177,186,182,185,190,193,193,196,192,186,180,177,167,170,161,146,0,0,19,4,253,251,248,245,242,238,236,234,233,233,234,233,233,233,233,233,234,235,234,234,234,234,234,234,235,235,234,234,234,233,233,235,238,240,242,246,250,7,47,0,0,178,179,0,0,0,0,0,104,93,86,83,80,78,76,71,64,58,56,54,57,66,72,79,83,87,90,95,98.00001,101,105,108,111,116,118,123,129,147,0,0,167,174,174,176,183,186,186,195,186,191,200,203,203,203,202,198,199,194,198,189,185,188,184,187,189,192,186,184,181,182,180,188,189,190,194,188,186,0,188,190,198,192,197,192,189,183,0,0,188,187,196,184,194,188,188,186,188,188,185,189,189,190,186,192,183,183,183,178,175,179,176,175,179,180,179,176,179,182,184,184,186,177,173,172,170,167,170,165,161,157,158,165,167,168,167,161,152,153,146,145,144,144,145,146,141,135,138,130,130,135,144,138,143,145,148,147,146,149,146,144,147,143,139,142,0,130,130,125,121,123,117,109,112,111,116,117,125,121,125,113,117,113,118,115,123,118,123,116,113,103,109,101,99.00001,99.00001,101,97.00001,95,94,97.00001,92,90,92,94,95,95,94,93,86,83,80,82,77,79,69,73,68,63,58,59,55,53,48,53,48,52,53,61,57,63,0,0,55,57,54,59,0,0,0,72,67,56,57,36,0,0,0,0,0,0,0,0,0,0,0,0,0,0,0,0,0,0,0,0,0,0,0,0,0,0,0,0,0,0,0,0,0,0,0,0,0,0,0,0,0,0,0,0,0,0,0,0,0,0,0,0,0,0,0,0,0,0,0,0,0,0,0,0,0,0,0,0,0,0,0,0,0,0,0,0,0,0,0,0,0,0,0,0,0,0,0,0,0,0,0,0,0,0,0,0,0,0,0,0,0,0,0,0,0,0,0,0,0,0,0,0,0,0
0,0,0,0,0,0,0,0,0,0,0,0,0,0,0,0,0,0,0,0,0,0,0,0,0,0,0,0,0,0,0,0,0,0,0,0,0,0,0,0,0,0,0,0,0,0,0,0,0,0,0,0,0,0,0,0,0,0,0,0,0,0,0,0,0,0,0,0,0,0,0,0,0,0,0,0,0,0,0,0,0,0,0,0,0,0,0,0,0,0,0,0,0,0,0,0,0,0,0,0,0,0,0,0,0,0,0,0,0,0,0,0,0,0,0,0,90,88,95,0,92,0,0,0,0,0,0,0,0,0,0,96.00001,107,104,116,124,139,134,0,0,119,106,112,112,115,116,125,129,132,131,138,0,0,0,0,0,129,126,139,135,141,144,147,142,158,151,151,158,159,0,147,148,146,144,146,159,166,169,171,171,174,167,170,167,167,161,164,163,173,175,176,178,178,173,175,179,182,183,182,181,175,173,175,178,179,186,191,190,190,199,195,187,185,185,178,177,181,176,177,177,189,186,191,190,196,189,195,205,205,207,211,201,193,189,186,179,183,174,160,0,0,16,4,254,251,248,245,242,238,235,232,231,230,230,229,229,230,229,230,231,233,233,234,234,233,233,233,233,233,233,232,232,232,232,235,238,240,243,246,250,5,0,0,0,193,199,189,177,0,0,126,101,90,85,83,80,79,77,70,61,55,52,50,53,61,69,76,81,85,89,94,98.00001,102,105,108,111,115,117,125,131,152,0,0,181,186,190,191,200,199,197,205,199,203,206,218,220,220,223,220,215,208,210,204,204,206,199,202,202,198,196,195,190,191,193,201,200,201,201,198,196,0,203,207,216,0,0,0,201,0,0,190,197,195,205,196,203,195,200,201,205,204,206,210,208,205,202,204,195,194,195,191,192,198,195,193,194,193,191,189,192,199,202,201,200,192,185,180,175,172,179,176,175,172,175,176,177,176,175,168,166,169,163,161,162,161,157,157,152,147,146,145,149,156,163,159,156,153,155,153,154,159,160,158,160,153,150,150,140,136,137,134,133,136,136,133,134,131,135,131,133,130,134,128,131,128,131,125,131,133,139,133,133,123,121,113,113,117,117,116,115,113,111,101,98.00001,98.00001,103,103,111,105,106,99.00001,95,94,93,88,83,72,67,67,68,67,72,72,71,62,66,65,69,67,71,65,63,58,59,56,58,54,61,67,0,0,90,0,0,0,0,0,0,0,0,0,0,0,0,0,0,0,0,0,0,0,0,0,0,0,0,0,0,0,0,0,0,0,0,0,0,0,0,0,0,0,0,0,0,0,0,0,0,0,0,0,0,0,0,0,0,0,0,0,0,0,0,0,0,0,0,0,0,0,0,0,0,0,0,0,0,0,0,0,0,0,0,0,0,0,0,0,0,0,0,0,0,0,0,0,0,0,0,0,0,0,0,0,0,0,0,0,0,0,0,0,0,0,0,0,0,0,0,0,0
0,0,0,0,0,0,0,0,0,0,0,0,0,0,0,0,0,0,0,0,0,0,0,0,0,0,0,0,0,0,0,0,0,0,0,0,0,0,0,0,0,0,0,0,0,0,0,0,0,0,0,0,0,0,0,0,0,0,0,0,0,0,0,0,0,0,0,0,0,0,0,0,0,0,0,0,0,0,0,0,0,0,0,0,0,0,0,0,0,0,0,0,0,0,0,0,0,0,0,0,0,0,0,0,0,0,0,0,0,0,0,0,0,0,0,0,0,0,0,0,104,0,114,113,108,102,114,117,121,139,0,128,0,125,126,136,0,147,0,0,124,114,119,122,120,124,129,138,136,137,135,137,131,136,136,145,142,141,147,152,151,157,152,148,156,155,153,165,166,163,163,167,164,166,169,176,178,183,183,188,182,180,179,180,178,181,178,180,183,185,187,192,186,187,187,187,190,191,186,189,184,188,188,195,193,199,197,201,197,0,204,203,197,201,188,188,193,196,193,199,209,203,203,204,208,205,209,220,216,216,219,209,197,195,190,182,186,180,157,0,0,12,3,254,253,248,247,243,239,235,232,229,228,228,228,227,227,226,227,227,230,231,232,232,231,230,229,230,231,231,231,231,231,232,234,238,240,243,246,251,6,0,0,186,205,212,202,0,0,0,125,101,90,87,84,81,79,76,67,58,50,46,45,48,56,64,71,79,85,89,94,99.00001,102,106,108,111,114,118,124,132,155,0,175,193,198,201,203,211,210,204,214,212,217,222,234,236,231,233,230,223,217,223,218,215,215,206,208,208,206,207,209,206,208,213,213,210,212,211,208,207,211,204,206,214,211,212,0,0,202,209,206,207,206,218,212,210,206,207,208,210,215,218,226,227,223,220,224,212,215,217,214,207,216,205,200,200,201,193,194,196,201,200,204,204,202,197,196,192,191,192,192,188,185,186,188,186,188,189,186,179,190,183,178,176,180,169,165,164,165,162,167,172,179,179,175,167,168,162,164,164,174,175,178,179,179,174,174,163,160,156,155,148,150,151,151,151,149,152,143,144,139,145,142,149,148,147,141,148,147,149,151,150,142,138,134,131,133,131,130,128,126,124,113,111,112,114,114,118,110,109,103,96.00001,95,96.00001,93,89,84,80,83,81,80,84,86,85,83,90,87,88,86,82,70,67,66,65,62,69,71,75,83,92,103,102,92,85,91,65,0,0,0,0,0,0,0,0,0,0,0,0,0,0,0,0,0,0,0,0,0,0,0,0,0,0,0,0,0,0,0,0,0,0,0,0,0,0,0,0,0,0,0,0,0,0,0,0,0,0,0,0,0,0,0,0,0,0,0,0,0,0,0,0,0,0,0,0,0,0,0,0,0,0,0,0,0,0,0,0,0,0,0,0,0,0,0,0,0,0,0,0,0,0,0,0,0,0,0,0,0,0,0,0,0,0,0,0,0,0,0,0,0,0
0,0,0,0,0,0,0,0,0,0,0,0,0,0,0,0,0,0,0,0,0,0,0,0,0,0,0,0,0,0,0,0,0,0,0,0,0,0,0,0,0,0,0,0,0,0,0,0,0,0,0,0,0,0,0,0,0,0,0,0,0,0,0,0,0,0,0,0,0,0,0,0,0,0,0,0,0,0,0,0,0,0,0,0,0,0,0,0,0,0,0,0,0,0,0,0,0,0,0,0,0,0,0,0,0,0,0,0,0,0,0,0,0,0,0,0,0,0,0,0,115,124,129,125,122,0,129,133,145,162,165,149,140,134,133,0,0,0,0,0,0,129,131,135,134,138,142,149,144,143,141,143,145,156,154,162,161,160,156,166,164,165,156,162,162,0,0,0,0,174,173,174,171,174,177,183,182,191,195,200,191,194,193,189,189,192,189,189,193,190,198,206,205,212,212,209,206,206,199,206,205,215,213,221,215,216,206,207,201,211,209,213,212,216,203,200,201,201,197,205,218,214,214,219,225,220,226,237,231,226,229,219,208,208,203,198,203,202,170,0,0,14,7,0,254,251,248,244,240,237,232,229,227,226,226,224,224,222,223,223,225,227,228,227,227,226,226,226,226,228,229,229,230,231,233,236,239,243,247,253,10,0,0,0,215,223,211,0,0,0,121,102,92,88,85,81,79,73,64,54,47,44,42,44,50,59,68,77,83,89,94,99.00001,103,105,107,110,114,117,122,132,154,0,179,200,208,218,218,227,228,227,235,243,246,247,251,250,242,243,237,230,228,234,231,232,230,220,223,221,218,222,225,222,226,232,231,226,229,229,224,220,0,0,212,218,0,221,0,0,214,217,215,219,217,230,229,0,222,224,222,222,225,232,236,237,234,230,230,226,229,232,232,222,229,220,214,209,212,205,206,210,211,214,216,212,209,209,205,203,204,206,207,209,208,207,208,207,203,201,199,190,199,193,189,187,194,185,182,179,177,174,178,181,190,194,189,181,181,172,172,178,183,186,187,183,182,178,179,173,176,170,171,164,168,169,169,168,166,167,158,159,151,158,153,160,159,162,157,164,161,159,158,155,151,146,146,147,149,141,141,135,132,126,122,122,124,125,121,123,115,116,106,107,108,107,105,103,101,94,98.00001,97.00001,98.00001,98.00001,101,98.00001,97.00001,102,104,99.00001,102,104,92,87,94,90,86,93,97.00001,92,103,106,110,107,0,0,0,0,0,0,0,0,0,0,0,0,0,0,0,0,0,0,0,0,0,0,0,0,0,0,0,0,0,0,0,0,0,0,0,0,0,0,0,0,0,0,0,0,0,0,0,0,0,0,0,0,0,0,0,0,0,0,0,0,0,0,0,0,0,0,0,0,0,0,0,0,0,0,0,0,0,0,0,0,0,0,0,0,0,0,0,0,0,0,0,0,0,0,0,0,0,0,0,0,0,0,0,0,0,0,0,0,0,0,0,0,0,0,0,0,0,0
0,0,0,0,0,0,0,0,0,0,0,0,0,0,0,0,0,0,0,0,0,0,0,0,0,0,0,0,0,0,0,0,0,0,0,0,0,0,0,0,0,0,0,0,0,0,0,0,0,0,0,0,0,0,0,0,0,0,0,0,0,0,0,0,0,0,0,0,0,0,0,0,0,0,0,0,0,0,0,0,0,0,0,0,0,0,0,0,0,0,0,0,0,0,0,0,0,0,0,0,0,0,0,0,0,0,0,0,0,0,0,0,0,0,0,0,0,0,0,0,127,0,143,136,0,0,0,136,155,174,176,0,0,147,146,0,0,0,0,0,154,142,148,147,143,150,152,155,157,155,158,162,165,173,0,179,176,175,0,187,180,184,172,172,171,0,0,0,198,200,197,196,191,193,193,196,192,201,203,211,201,201,204,202,196,205,205,202,205,206,213,223,220,230,233,227,222,224,215,219,216,225,223,228,222,223,212,210,206,215,215,225,226,231,218,218,215,217,210,218,227,222,223,226,231,227,237,246,240,238,242,228,216,219,215,212,213,215,187,0,0,17,10,5,3,255,253,247,244,239,235,230,230,228,225,223,223,220,221,222,223,223,223,222,221,222,222,223,223,225,227,227,228,229,230,233,237,242,247,254,17,0,0,0,229,239,220,0,0,0,116,100,91,88,85,81,77,71,61,51,44,41,40,42,47,56,63,74,81,88,94,99.00001,102,105,106,111,112,116,122,133,155,0,198,222,237,244,242,247,245,238,245,2,3,5,0,4,250,255,245,241,240,249,246,252,245,241,239,230,224,232,232,229,237,242,242,237,242,242,0,0,0,0,225,0,0,0,0,0,226,223,224,227,227,236,241,236,230,235,232,228,232,243,244,245,245,242,240,235,237,240,241,236,242,240,237,237,238,239,237,237,231,229,225,220,217,218,210,207,211,213,210,215,215,212,211,212,211,210,213,208,215,207,200,195,198,194,191,189,192,187,189,195,204,201,202,196,197,186,191,192,195,194,193,185,189,187,186,187,194,187,190,187,185,187,188,186,181,185,175,175,167,174,167,172,169,171,170,174,172,170,168,164,163,157,160,162,161,156,157,152,151,150,148,142,143,140,135,131,125,129,123,126,133,134,131,130,122,110,110,107,107,106,108,107,106,108,110,107,110,112,106,103,108,103,93,99.00001,103,98.00001,113,115,120,123,0,0,0,0,0,0,0,0,0,0,0,0,0,0,0,0,0,0,0,0,0,0,0,0,0,0,0,0,0,0,0,0,0,0,0,0,0,0,0,0,0,0,0,0,0,0,0,0,0,0,0,0,0,0,0,0,0,0,0,0,0,0,0,0,0,0,0,0,0,0,0,0,0,0,0,0,0,0,0,0,0,0,0,0,0,0,0,0,0,0,0,0,0,0,0,0,0,0,0,0,0,0,0,0,0,0,0,0,0,0,0,0,0,0,0,0,0,0
0,0,0,0,0,0,0,0,0,0,0,0,0,0,0,0,0,0,0,0,0,0,0,0,0,0,0,0,0,0,0,0,0,0,0,0,0,0,0,0,0,0,0,0,0,0,0,0,0,0,0,0,0,0,0,0,0,0,0,0,0,0,0,0,0,0,0,0,0,0,0,0,0,0,0,0,0,0,0,0,0,0,0,0,0,0,0,0,0,0,0,0,0,0,0,0,0,0,0,0,0,0,0,0,0,0,0,0,0,0,0,0,0,0,0,0,0,0,0,0,0,0,0,0,0,0,0,141,0,183,0,0,0,0,0,0,0,168,165,167,159,155,157,163,160,170,169,176,167,164,164,168,168,181,176,183,180,184,185,200,189,200,0,188,182,195,0,204,200,204,201,199,199,204,202,204,201,209,210,219,208,208,213,218,212,223,231,228,224,226,231,230,226,234,242,234,230,231,227,227,227,238,240,243,241,242,228,224,221,227,226,239,246,249,237,239,236,232,225,232,239,233,233,241,248,243,252,3,248,245,1,244,231,240,238,229,229,241,0,0,37,17,13,9,6,3,0,251,246,241,237,234,231,229,226,223,222,219,219,219,220,219,219,219,218,219,220,221,221,223,225,225,226,228,229,231,235,241,249,5,0,0,0,226,234,245,223,186,0,127,110,98.00001,90,88,84,80,74,64,55,47,42,40,39,40,44,51,59,68,76,85,91,98.00001,101,104,107,111,114,118,125,136,158,0,222,244,7,8,5,0,254,245,1,8,15,5,0,5,254,2,2,250,254,3,5,10,6,0,3,245,241,248,249,242,248,249,250,244,246,248,249,0,0,0,0,0,0,0,0,246,240,238,242,243,248,253,4,0,0,248,248,241,249,1,1,255,6,1,2,2,1,253,0,247,249,246,251,248,254,1,2,250,246,242,238,235,232,230,223,223,228,231,236,237,235,227,225,224,226,226,233,234,236,230,225,218,218,215,209,207,208,204,205,210,216,216,220,217,216,209,211,205,205,203,199,193,198,201,205,207,216,215,216,209,211,209,212,212,203,200,193,187,176,184,184,185,180,182,181,177,178,178,176,174,182,174,172,172,168,162,161,162,161,164,157,154,154,150,140,141,140,147,146,159,162,161,155,157,141,134,133,130,126,126,125,122,115,117,117,112,114,125,117,0,123,117,105,115,115,109,118,122,119,0,0,0,122,0,0,0,0,0,0,0,0,0,0,0,0,0,0,0,0,0,0,0,0,0,0,0,0,0,0,0,0,0,0,0,0,0,0,0,0,0,0,0,0,0,0,0,0,0,0,0,0,0,0,0,0,0,0,0,0,0,0,0,0,0,0,0,0,0,0,0,0,0,0,0,0,0,0,0,0,0,0,0,0,0,0,0,0,0,0,0,0,0,0,0,0,0,0,0,0,0,0,0,0,0,0,0,0,0,0,0,0,0,0,0,0,0,0,0
0,0,0,0,0,0,0,0,0,0,0,0,0,0,0,0,0,0,0,0,0,0,0,0,0,0,0,0,0,0,0,0,0,0,0,0,0,0,0,0,0,0,0,0,0,0,0,0,0,0,0,0,0,0,0,0,0,0,0,0,0,0,0,0,0,0,0,0,0,0,0,0,0,0,0,0,0,0,0,0,0,0,0,0,0,0,0,0,0,0,0,0,0,0,0,0,0,0,0,0,0,0,0,0,0,0,0,0,0,0,0,0,0,0,0,0,0,0,0,0,0,0,165,0,0,0,0,0,0,207,0,0,0,0,0,0,0,178,180,0,0,0,167,175,181,183,187,198,188,176,177,180,180,192,189,197,195,200,204,217,206,208,0,196,187,202,208,215,211,216,213,212,214,220,220,220,218,223,224,230,223,224,225,228,215,227,233,233,229,236,242,241,239,250,254,244,242,241,234,237,0,248,0,4,0,254,245,242,238,244,243,2,9,10,252,2,0,252,245,252,254,254,251,0,9,2,5,12,0,247,3,250,238,249,249,242,241,251,0,0,0,21,16,13,11,7,4,252,247,242,239,235,233,231,228,224,222,219,218,217,217,216,217,216,217,218,219,219,219,220,221,222,223,226,227,229,235,243,251,9,30,0,0,249,246,249,229,190,0,121,105,97.00001,90,87,82,77,68,60,52,46,40,39,38,39,42,49,54,63,73,82,89,94,99.00001,105,107,112,117,120,124,136,156,0,248,12,28,30,30,19,10,8,14,16,24,23,18,6,0,255,2,3,13,23,24,23,18,15,14,3,2,10,6,255,3,4,6,255,0,0,0,0,0,0,0,0,0,0,0,251,253,253,0,0,10,11,15,6,6,2,2,249,255,2,4,5,15,15,23,23,20,15,14,3,0,2,8,6,9,14,11,3,2,255,253,251,242,241,232,233,243,248,250,254,254,241,242,245,251,248,255,253,251,0,237,233,230,227,227,225,226,227,224,223,227,226,226,226,224,217,218,210,213,212,211,206,212,213,219,223,226,227,224,218,220,220,218,222,214,209,200,199,188,192,194,201,198,200,202,198,192,193,191,184,191,189,189,194,190,183,181,172,164,171,168,166,171,165,154,155,152,156,159,170,171,171,166,173,163,152,151,147,140,136,142,140,134,134,133,125,123,135,132,0,141,139,132,144,142,143,143,139,127,128,128,132,134,0,138,0,142,138,134,0,0,0,0,0,0,0,0,0,0,0,0,0,0,0,0,0,0,0,0,0,0,0,0,0,0,0,0,0,0,0,0,0,0,0,0,0,0,0,0,0,0,0,0,0,0,0,0,0,0,0,0,0,0,0,0,0,0,0,0,0,0,0,0,0,0,0,0,0,0,0,0,0,0,0,0,0,0,0,0,0,0,0,0,0,0,0,0,0,0,0,0,0,0,0,0,0,0,0,0,0,0,0,0,0,0,0,0,0
0,0,0,0,0,0,0,0,0,0,0,0,0,0,0,0,0,0,0,0,0,0,0,0,0,0,0,0,0,0,0,0,0,0,0,0,0,0,0,0,0,0,0,0,0,0,0,0,0,0,0,0,0,0,0,0,0,0,0,0,0,0,0,0,0,0,0,0,0,0,0,0,0,0,0,0,0,0,0,0,0,0,0,0,0,0,0,0,0,0,0,0,0,0,0,0,0,0,0,0,0,0,0,0,0,0,0,0,0,0,0,0,0,0,0,0,0,0,0,0,0,0,0,0,0,0,0,0,0,0,0,0,0,0,203,195,195,196,0,199,203,0,189,192,202,0,204,207,0,0,0,0,200,202,200,201,199,209,0,225,222,221,217,210,206,215,221,219,214,219,221,221,222,230,231,228,228,234,237,242,239,241,243,243,232,235,243,246,247,255,5,0,1,10,13,4,5,5,253,0,0,6,9,11,12,8,3,253,2,0,0,14,28,21,16,20,14,3,2,4,6,9,8,10,18,13,18,27,20,15,27,15,2,11,9,2,4,11,252,0,0,27,20,16,13,11,5,0,247,243,238,236,235,232,228,225,222,219,217,217,217,216,216,216,217,217,220,220,220,220,221,221,224,226,226,229,233,240,248,3,0,0,0,3,254,251,236,0,0,120,104,94,89,85,80,72,62,56,48,45,41,39,38,39,41,45,48,56,63,74,82,90,96.00001,100,106,112,117,121,129,141,165,0,14,32,45,42,36,28,22,21,29,30,37,34,31,0,15,14,15,16,26,37,37,40,36,36,29,19,16,22,17,9,14,18,17,7,10,0,2,0,0,5,0,0,0,0,0,4,5,6,3,8,20,0,0,0,0,0,15,10,12,17,15,14,22,25,31,32,24,17,15,8,8,17,27,25,26,34,30,24,21,27,14,10,255,255,244,253,3,7,1,6,2,254,254,5,9,7,8,9,3,249,251,250,246,247,245,238,232,234,233,231,233,239,239,239,239,241,241,234,237,234,220,219,220,226,236,246,245,246,233,227,228,226,224,227,219,214,210,211,203,209,206,211,207,208,208,205,201,202,203,196,201,199,198,203,206,200,195,187,173,177,171,173,178,182,168,174,173,180,179,190,190,188,183,190,175,164,163,157,151,152,154,153,149,144,140,138,136,146,150,0,155,155,150,154,153,153,147,143,129,127,129,139,0,0,0,0,144,146,148,143,0,0,0,0,0,0,0,0,0,0,0,0,0,0,0,0,0,0,0,0,0,0,0,0,0,0,0,0,0,0,0,0,0,0,0,0,0,0,0,0,0,0,0,0,0,0,0,0,0,0,0,0,0,0,0,0,0,0,0,0,0,0,0,0,0,0,0,0,0,0,0,0,0,0,0,0,0,0,0,0,0,0,0,0,0,0,0,0,0,0,0,0,0,0,0,0,0,0,0,0,0,0,0,0,0,0,0,0
0,0,0,0,0,0,0,0,0,0,0,0,0,0,0,0,0,0,0,0,0,0,0,0,0,0,0,0,0,0,0,0,0,0,0,0,0,0,0,0,0,0,0,0,0,0,0,0,0,0,0,0,0,0,0,0,0,0,0,0,0,0,0,0,0,0,0,0,0,0,0,0,0,0,0,0,0,0,0,0,0,0,0,0,0,0,0,0,0,0,0,0,0,0,0,0,0,0,0,0,0,0,0,0,0,0,0,0,0,0,0,0,0,0,0,0,0,0,0,0,0,0,0,0,0,0,0,0,198,216,0,0,0,0,207,209,208,0,212,208,207,211,205,209,212,214,0,221,0,0,0,0,208,215,213,207,203,217,233,233,229,234,228,216,212,0,0,223,218,226,225,229,232,245,245,247,251,2,0,7,6,7,4,5,0,0,0,3,1,11,15,12,6,19,24,19,19,21,12,13,16,10,12,13,17,17,16,16,18,17,25,39,43,39,37,39,35,31,32,33,28,31,23,20,22,17,23,37,32,30,44,30,19,29,27,21,16,20,18,0,0,30,23,22,18,15,8,254,246,240,237,235,233,230,226,224,222,220,218,219,218,218,217,218,218,219,221,222,222,221,221,221,223,225,227,229,233,240,248,2,19,0,0,27,18,1,241,0,0,115,101,92,86,82,73,69,58,52,45,43,39,39,37,39,40,43,46,51,57,67,76,84,92,98.00001,107,113,117,123,130,145,176,0,31,45,58,53,54,47,42,33,39,27,37,35,38,27,31,28,31,31,39,49,51,55,54,57,50,35,26,29,25,14,21,28,26,18,0,0,0,0,0,18,19,0,0,0,0,21,26,25,24,25,36,0,32,28,23,22,24,21,23,24,21,20,25,34,44,44,38,33,28,22,25,30,41,46,45,52,47,37,33,37,28,27,23,19,13,18,20,25,19,15,12,12,8,9,20,17,20,21,24,15,16,12,7,7,2,253,244,246,243,242,243,247,247,243,248,250,254,245,252,243,234,235,240,242,0,6,5,9,253,244,244,238,231,236,231,225,221,224,216,222,225,228,223,220,217,214,212,214,220,216,218,216,214,216,223,217,211,207,197,196,192,196,195,196,185,199,193,203,203,214,204,204,195,202,185,176,177,172,159,164,172,170,166,171,155,154,148,153,159,0,162,163,160,157,161,163,161,0,151,147,146,154,0,0,152,0,156,157,155,151,143,133,0,0,0,0,0,0,0,0,0,0,0,0,0,0,0,0,0,0,0,0,0,0,0,0,0,0,0,0,0,0,0,0,0,0,0,0,0,0,0,0,0,0,0,0,0,0,0,0,0,0,0,0,0,0,0,0,0,0,0,0,0,0,0,0,0,0,0,0,0,0,0,0,0,0,0,0,0,0,0,0,0,0,0,0,0,0,0,0,0,0,0,0,0,0,0,0,0,0,0,0,0,0,0,0,0,0
0,0,0,0,0,0,0,0,0,0,0,0,0,0,0,0,0,0,0,0,0,0,0,0,0,0,0,0,0,0,0,0,0,0,0,0,0,0,0,0,0,0,0,0,0,0,0,0,0,0,0,0,0,0,0,0,0,0,0,0,0,0,0,0,0,0,0,0,0,0,0,0,0,0,0,0,0,0,0,0,0,0,0,0,0,0,0,0,0,0,0,0,0,0,0,0,0,0,0,0,0,0,0,0,0,0,0,0,0,0,0,0,0,0,0,0,0,0,0,218,0,0,0,0,0,0,0,0,213,229,224,0,0,0,0,228,225,226,219,210,212,219,220,224,225,225,0,224,0,0,0,0,222,230,229,223,222,233,0,0,0,0,0,235,231,0,238,234,224,0,239,240,241,252,249,249,0,8,10,19,20,28,18,17,0,0,1,0,5,13,21,18,12,35,35,29,33,39,29,29,41,34,36,36,40,0,37,38,44,43,50,51,58,53,49,49,0,0,35,35,31,41,36,35,38,38,41,53,53,50,54,43,33,42,40,39,41,49,0,0,0,35,27,25,21,18,8,1,247,241,237,234,231,229,226,224,222,220,218,219,218,218,219,219,219,220,222,222,223,222,222,222,223,225,227,228,232,236,242,251,0,0,0,0,33,12,0,0,0,116,102,93,85,80,71,64,54,50,45,42,39,39,37,37,38,40,42,45,50,58,68,81,88,98.00001,105,111,120,124,134,149,188,0,44,58,66,58,61,59,56,51,60,47,55,50,52,39,46,42,49,51,58,63,66,67,70,71,68,55,47,48,47,34,39,45,45,0,0,0,0,0,0,33,26,27,30,35,38,39,39,43,38,36,45,0,43,42,38,36,38,36,39,39,38,37,42,48,57,58,52,45,44,35,34,39,48,42,46,51,46,39,47,51,43,47,45,41,36,40,39,46,36,35,34,35,27,30,34,31,35,33,39,36,37,34,33,34,27,19,8,9,3,3,8,9,9,4,3,5,10,2,6,3,249,253,253,0,13,14,8,13,3,251,255,252,244,248,243,233,227,233,225,230,231,240,235,232,229,229,222,224,229,224,224,225,225,227,234,228,220,212,205,202,195,198,199,202,192,210,205,211,211,219,209,207,205,209,202,197,204,202,190,199,0,0,193,195,175,174,167,172,176,0,183,188,180,180,179,173,171,175,161,157,159,171,171,179,170,179,179,177,0,170,160,0,0,0,0,0,0,0,0,0,0,0,0,0,0,0,0,0,0,0,0,0,0,0,0,0,0,0,0,0,0,0,0,0,0,0,0,0,0,0,0,0,0,0,0,0,0,0,0,0,0,0,0,0,0,0,0,0,0,0,0,0,0,0,0,0,0,0,0,0,0,0,0,0,0,0,0,0,0,0,0,0,0,0,0,0,0,0,0,0,0,0,0,0,0,0,0,0,0,0,0,0,0,0,0,0,0,0
0,0,0,0,0,0,0,0,0,0,0,0,0,0,0,0,0,0,0,0,0,0,0,0,0,0,0,0,0,0,0,0,0,0,0,0,0,0,0,0,0,0,0,0,0,0,0,0,0,0,0,0,0,0,0,0,0,0,0,0,0,0,0,0,0,0,0,0,0,0,0,0,0,0,0,0,0,0,0,0,0,0,0,0,0,0,0,0,0,0,0,0,0,0,0,0,0,0,0,0,0,0,0,0,0,0,0,0,0,0,0,0,0,0,0,0,0,238,240,228,0,0,0,0,0,0,251,0,239,250,245,0,0,0,239,240,241,241,235,231,236,240,247,247,244,0,0,238,0,0,0,0,0,241,246,235,0,243,0,0,0,0,0,254,0,0,0,0,0,0,5,0,5,9,10,7,16,24,24,25,31,34,23,24,0,0,13,0,20,26,32,35,33,52,51,49,50,54,41,42,50,43,44,49,55,0,49,48,52,51,59,59,68,64,63,60,56,44,47,48,52,64,57,53,52,53,52,59,66,65,66,60,54,53,56,55,58,60,71,0,0,0,29,29,25,21,12,0,247,240,237,233,230,226,223,222,221,221,220,220,220,220,220,220,221,221,223,223,223,222,222,221,223,224,227,228,232,235,241,245,0,0,0,80,62,43,0,0,0,116,101,93,83,77,68,59,50,49,43,41,38,38,36,36,37,38,38,41,46,52,61,73,86,97.00001,103,112,116,121,130,146,188,0,0,62,71,69,77,82,84,84,86,72,70,66,64,52,57,62,66,70,72,80,75,81,84,90,84,80,70,68,72,63,68,74,69,64,0,0,0,0,0,38,31,31,36,44,45,51,50,56,49,52,53,0,0,52,46,46,44,45,47,48,46,44,47,56,59,61,61,57,52,51,50,56,59,58,55,60,50,51,57,67,63,67,65,58,52,53,57,57,43,43,38,39,37,44,44,43,39,36,39,43,45,54,52,56,45,37,28,29,24,23,27,22,21,19,19,21,25,26,26,27,18,21,15,17,24,24,20,23,16,8,10,8,0,0,1,251,241,250,243,248,242,1,248,248,240,247,237,239,241,235,234,234,237,245,253,250,242,235,221,221,215,217,217,223,216,227,216,218,216,214,211,215,216,219,219,218,226,221,212,0,0,0,208,202,186,193,192,188,204,214,199,193,187,180,181,175,174,183,177,176,175,0,186,186,176,185,186,185,192,184,182,0,0,0,0,0,0,0,0,0,0,0,0,0,0,0,0,0,0,0,0,0,0,0,0,0,0,0,0,0,0,0,0,0,0,0,0,0,0,0,0,0,0,0,0,0,0,0,0,0,0,0,0,0,0,0,0,0,0,0,0,0,0,0,0,0,0,0,0,0,0,0,0,0,0,0,0,0,0,0,0,0,0,0,0,0,0,0,0,0,0,0,0,0,0,0,0,0,0,0,0,0,0,0,0,0,0,0
0,0,0,0,0,0,0,0,0,0,0,0,0,0,0,0,0,0,0,0,0,0,0,0,0,0,0,0,0,0,0,0,0,0,0,0,0,0,0,0,0,0,0,0,0,0,0,0,0,0,0,0,0,0,0,0,0,0,0,0,0,0,0,0,0,0,0,0,0,0,0,0,0,0,0,0,0,0,0,0,0,0,0,0,0,0,0,0,0,0,0,0,0,0,0,0,0,0,0,0,0,0,0,0,0,0,0,0,0,0,0,0,0,0,0,0,0,0,0,0,0,0,0,0,0,0,5,9,245,255,254,0,0,0,0,244,250,0,252,0,0,0,0,0,0,0,0,0,0,0,0,0,255,255,6,252,0,253,0,0,3,10,12,10,22,0,0,0,0,0,0,21,0,0,27,18,31,38,39,43,50,48,41,0,0,0,0,0,45,49,58,55,52,73,70,68,72,74,60,54,58,48,49,48,65,65,63,65,70,65,75,69,76,74,74,67,71,60,60,64,67,76,71,67,67,70,68,75,83,82,86,81,77,77,81,82,90,92,96.00001,0,0,0,32,32,29,21,15,1,246,241,237,233,230,226,224,223,222,223,222,223,222,223,223,223,222,223,224,224,224,224,224,222,224,224,226,227,232,233,239,240,0,0,0,0,96.00001,72,0,0,0,115,101,91,82,73,64,54,47,45,41,39,38,38,36,36,37,35,37,38,43,48,57,70,81,94,102,109,113,120,131,147,210,0,0,81,93,91,94,103,107,106,109,98.00001,92,88,88,81,86,97.00001,93,91,89,92,81,87,89,93,84,82,77,78,82,0,86,91,82,79,0,0,0,0,0,52,44,48,47,0,49,56,51,58,58,67,64,71,67,64,58,63,58,62,63,64,58,55,56,64,58,62,63,64,56,65,66,70,68,70,66,70,65,71,71,79,73,72,70,68,65,69,73,74,66,0,0,0,0,59,56,56,47,46,49,56,56,66,66,71,63,56,45,40,36,30,34,29,38,36,39,43,50,45,42,43,32,35,30,30,34,36,35,36,35,24,24,18,14,16,25,23,17,24,20,23,16,22,13,11,255,6,3,7,5,2,255,254,251,1,6,3,250,247,237,237,232,232,233,239,240,248,239,240,236,233,228,233,232,235,233,236,241,236,228,224,219,0,222,0,217,222,222,207,217,0,216,210,205,198,0,194,199,212,0,0,198,201,198,196,196,205,209,210,0,0,0,0,0,0,0,0,0,0,0,0,0,0,0,0,0,0,0,0,0,0,0,0,0,0,0,0,0,0,0,0,0,0,0,0,0,0,0,0,0,0,0,0,0,0,0,0,0,0,0,0,0,0,0,0,0,0,0,0,0,0,0,0,0,0,0,0,0,0,0,0,0,0,0,0,0,0,0,0,0,0,0,0,0,0,0,0,0,0,0,0,0,0,0,0,0,0,0,0,0,0,0,0,0,0,0,0,0,0
0,0,0,0,0,0,0,0,0,0,0,0,0,0,0,0,0,0,0,0,0,0,0,0,0,0,0,0,0,0,0,0,0,0,0,0,0,0,0,0,0,0,0,0,0,0,0,0,0,0,0,0,0,0,0,0,0,0,0,0,0,0,0,0,0,0,0,0,0,0,0,0,0,0,0,0,0,0,0,0,0,0,0,0,0,0,0,0,0,0,0,0,0,0,0,0,0,0,0,0,0,0,0,0,0,0,0,0,0,0,0,0,0,0,0,0,0,0,0,0,0,0,0,0,0,0,22,17,5,13,11,0,0,0,0,0,10,0,0,0,0,0,0,28,0,0,0,0,0,0,19,18,12,12,18,7,8,11,0,0,12,16,20,22,28,26,0,0,0,0,0,43,0,31,39,34,50,49,51,55,63,57,57,58,61,47,56,61,59,62,71,72,68,81,73,70,71,72,66,65,73,70,70,68,83,77,80,86,85,81,89,76,78,77,77,74,81,80,79,83,87,93,87,86,85,85,82,86,90,88,91,88,91,98.00001,106,108,113,112,111,108,0,0,0,32,30,24,15,0,245,240,236,233,229,226,224,223,223,223,223,224,223,223,224,224,224,224,225,224,224,223,222,221,222,223,225,227,233,235,241,245,250,0,0,0,0,0,0,0,0,102,95,85,80,71,63,54,48,45,42,38,38,37,35,35,36,35,37,38,44,46,56,64,77,88,98.00001,105,110,116,120,137,0,0,0,92,99.00001,98.00001,106,117,123,123,123,113,106,99.00001,96.00001,92,99.00001,110,107,109,109,107,94,101,101,100,93,94,86,88,93,95,92,99.00001,91,91,81,0,0,0,0,0,51,48,48,0,0,0,63,65,69,75,68,74,77,75,74,80,80,78,77,76,71,66,67,74,67,72,74,77,72,83,81,84,78,81,76,79,76,87,87,93,92,90,84,82,82,79,82,86,82,0,0,0,78,73,65,63,58,60,64,70,70,79,78,82,78,72,64,56,50,46,50,40,47,46,45,47,54,52,47,51,46,51,49,50,50,46,45,43,46,38,40,33,32,34,49,47,43,46,39,38,28,34,25,27,18,24,22,31,25,21,25,24,20,26,25,22,13,11,1,6,255,0,254,3,6,11,255,0,0,246,239,249,241,241,248,248,248,250,243,238,239,235,239,241,244,247,244,229,227,0,225,214,212,209,0,0,210,220,0,225,219,218,219,215,214,222,224,222,0,0,0,0,0,0,0,0,0,0,0,0,0,0,0,0,0,0,0,0,0,0,0,0,0,0,0,0,0,0,0,0,0,0,0,0,0,0,0,0,0,0,0,0,0,0,0,0,0,0,0,0,0,0,0,0,0,0,0,0,0,0,0,0,0,0,0,0,0,0,0,0,0,0,0,0,0,0,0,0,0,0,0,0,0,0,0,0,0,0,0,0,0,0,0,0,0,0,0,0,0,0,0,0,0,0,0,0,0,0
0,0,0,0,0,0,0,0,0,0,0,0,0,0,0,0,0,0,0,0,0,0,0,0,0,0,0,0,0,0,0,0,0,0,0,0,0,0,0,0,0,0,0,0,0,0,0,0,0,0,0,0,0,0,0,0,0,0,0,0,0,0,0,0,0,0,0,0,0,0,0,0,0,0,0,0,0,0,0,0,0,0,0,0,0,0,0,0,0,0,0,0,0,0,0,0,0,0,0,0,0,0,0,0,0,0,0,0,0,0,48,0,0,0,0,0,0,0,0,0,0,0,0,0,0,0,0,29,22,0,29,0,0,0,0,0,0,0,0,0,0,0,42,44,0,0,0,0,0,0,0,0,24,25,29,25,23,23,25,24,29,32,39,45,50,43,48,0,62,0,61,50,48,40,53,53,68,59,57,57,64,60,64,72,81,77,82,89,88,85,88,92,90,94,86,84,86,88,89,92,101,99.00001,99.00001,96.00001,104,91,95,95,98.00001,91,95,79,82,81,82,86,94,98.00001,96.00001,95,95,101,94,92,95,97.00001,92,91,99.00001,99.00001,102,104,106,106,114,116,125,131,134,141,0,0,0,30,28,21,12,253,243,239,236,233,229,227,226,226,225,225,225,224,224,224,224,224,223,224,224,223,223,223,223,222,223,224,227,229,235,239,247,249,0,0,0,0,0,0,0,0,0,99.00001,93,85,77,66,60,52,48,45,43,39,39,37,35,35,35,34,37,38,44,48,55,59,72,82,93,102,107,110,115,127,0,0,0,0,117,120,121,131,132,133,130,127,115,114,114,117,118,135,128,129,122,118,102,106,104,104,103,106,103,113,113,119,110,115,100,100,84,90,0,79,0,0,0,0,0,0,0,0,0,75,0,0,0,0,0,0,0,84,88,90,0,99.00001,92,87,81,84,74,83,86,95,90,101,97.00001,101,88,93,86,93,91,108,107,111,108,106,98.00001,99.00001,99.00001,94,92,94,86,83,80,90,85,92,84,90,77,78,75,79,73,86,85,87,86,81,76,71,69,63,68,57,63,64,63,66,70,68,60,64,56,64,63,67,63,63,58,51,50,46,43,41,44,45,55,58,58,57,53,54,40,47,47,46,33,37,34,34,31,28,34,34,33,38,34,32,26,28,19,30,23,24,21,28,32,38,25,18,15,252,252,9,13,15,24,20,18,13,14,11,10,0,255,244,250,247,251,240,242,235,235,225,226,223,222,215,220,228,0,226,230,235,233,230,235,238,237,237,0,0,0,0,0,0,0,0,0,0,0,0,0,0,0,0,0,0,0,0,0,0,0,0,0,0,0,0,0,0,0,0,0,0,0,0,0,0,0,0,0,0,0,0,0,0,0,0,0,0,0,0,0,0,0,0,0,0,0,0,0,0,0,0,0,0,0,0,0,0,0,0,0,0,0,0,0,0,0,0,0,0,0,0,0,0,0,0,0,0,0,0,0,0,0,0,0,0,0,0,0,0,0,0,0,0,0,0,0,0
0,0,0,0,0,0,0,0,0,0,0,0,0,0,0,0,0,0,0,0,0,0,0,0,0,0,0,0,0,0,0,0,0,0,0,0,0,0,0,0,0,0,0,0,0,0,0,0,0,0,0,0,0,0,0,0,0,0,0,0,0,0,0,0,0,0,0,0,0,0,0,0,0,0,0,0,0,0,0,0,0,0,0,0,0,0,0,0,0,0,0,0,0,0,0,0,0,0,0,0,0,0,0,0,0,0,0,0,0,0,0,0,0,0,0,0,0,0,0,0,0,0,0,0,0,0,0,0,0,0,46,0,0,0,0,0,35,0,0,0,0,59,64,71,67,64,0,0,0,0,0,0,40,41,49,49,47,48,49,43,45,47,51,54,58,56,0,0,73,0,72,61,56,57,67,71,85,78,69,66,73,69,79,91,95,98.00001,104,108,104,107,105,109,105,109,96.00001,93,95,98.00001,95,102,108,106,102,107,116,111,107,112,108,0,103,100,97.00001,95,94,0,108,118,118,119,113,119,108,107,112,114,107,113,113,117,120,127,128,131,133,139,133,136,140,152,0,0,0,22,21,15,2,249,239,235,232,233,230,229,228,227,226,226,225,224,225,224,224,224,224,223,223,222,222,222,222,222,223,225,228,232,236,242,248,251,0,0,0,0,0,0,0,0,109,92,87,78,74,62,58,50,48,46,44,40,39,37,34,33,34,34,37,39,46,50,55,59,68,74,85,94,101,104,109,0,0,0,0,132,127,134,136,148,149,148,143,139,122,121,121,126,124,140,135,138,132,130,118,121,118,114,110,112,109,119,125,133,0,124,105,100,88,93,0,0,0,0,0,0,0,0,0,0,0,0,0,0,0,94,99.00001,97.00001,96.00001,102,107,106,0,110,99.00001,94,87,90,82,92,90,97.00001,94,102,103,120,112,125,119,121,112,124,116,120,118,119,107,107,114,108,104,107,101,95,96.00001,101,99.00001,99.00001,93,93,80,82,84,85,82,94,96.00001,97.00001,96.00001,92,88,81,79,76,77,69,77,82,82,85,89,85,77,76,70,73,71,71,67,64,63,57,56,56,55,52,56,60,68,76,79,75,72,68,55,54,0,0,51,52,61,58,59,51,60,55,51,54,52,49,46,49,41,51,47,47,44,49,57,58,45,34,36,14,17,31,37,37,40,36,27,23,26,22,24,23,26,0,8,0,253,244,251,242,251,244,245,242,249,236,238,247,0,237,242,249,236,234,242,239,238,244,0,0,0,0,0,0,0,0,0,0,0,0,0,0,0,0,0,0,0,0,0,0,0,0,0,0,0,0,0,0,0,0,0,0,0,0,0,0,0,0,0,0,0,0,0,0,0,0,0,0,0,0,0,0,0,0,0,0,0,0,0,0,0,0,0,0,0,0,0,0,0,0,0,0,0,0,0,0,0,0,0,0,0,0,0,0,0,0,0,0,0,0,0,0,0,0,0,0,0,0,0,0,0,0,0,0,0,0,0,0
0,0,0,0,0,0,0,0,0,0,0,0,0,0,0,0,0,0,0,0,0,0,0,0,0,0,0,0,0,0,0,0,0,0,0,0,0,0,0,0,0,0,0,0,0,0,0,0,0,0,0,0,0,0,0,0,0,0,0,0,0,0,0,0,0,0,0,0,0,0,0,0,0,0,0,0,0,0,0,0,0,0,0,0,0,0,0,0,0,0,0,0,0,0,0,0,0,0,0,0,0,0,0,0,0,0,0,0,0,0,0,0,0,0,0,0,0,0,0,0,0,78,0,0,0,0,0,0,0,0,0,0,0,0,0,39,0,0,0,0,0,83,88,98.00001,95,89,0,0,0,0,0,0,0,63,64,60,61,67,72,72,67,69,71,76,77,86,0,102,97.00001,0,96.00001,95,0,0,99.00001,103,109,93,83,86,87,92,102,108,110,114,107,112,110,114,115,124,0,126,114,0,114,115,118,127,131,129,123,119,122,122,125,132,135,128,123,119,110,115,109,0,114,126,125,126,117,125,117,114,127,134,132,137,136,134,137,141,142,145,151,157,150,154,162,0,0,0,0,9,9,5,250,242,236,233,231,230,229,229,229,227,228,227,226,223,224,222,222,222,222,221,221,221,221,220,221,222,223,226,229,235,241,248,253,2,2,0,0,0,0,0,0,0,97.00001,88,84,77,69,61,56,51,48,47,45,41,39,37,34,33,33,33,36,41,45,50,55,59,65,75,85,92,101,103,108,116,0,0,146,153,152,150,153,159,154,149,151,150,143,142,146,148,0,155,155,156,155,151,145,138,137,131,132,128,130,138,142,143,0,136,122,111,109,111,0,116,0,0,0,0,0,0,0,0,0,0,0,0,0,107,116,115,115,120,0,0,0,124,111,105,101,101,98.00001,102,96.00001,102,104,103,107,126,118,120,123,124,122,129,125,123,124,122,112,118,121,115,114,120,114,113,118,121,118,115,113,108,98.00001,100,103,96.00001,94,100,102,103,106,102,99.00001,94,92,93,96.00001,91,97.00001,99.00001,98.00001,99.00001,96.00001,92,85,83,75,83,82,81,76,72,70,62,64,67,64,61,63,67,68,77,83,87,82,83,73,64,73,71,70,69,81,74,75,69,75,68,61,59,62,61,60,66,59,58,51,47,43,46,58,64,55,57,60,44,39,49,47,47,44,43,35,32,38,39,43,47,49,33,27,18,11,4,4,5,13,13,13,10,13,2,5,11,10,253,254,5,248,251,253,251,247,255,0,0,0,0,0,0,0,0,0,0,0,0,0,0,0,0,0,0,0,0,0,0,0,0,0,0,0,0,0,0,0,0,0,0,0,0,0,0,0,0,0,0,0,0,0,0,0,0,0,0,0,0,0,0,0,0,0,0,0,0,0,0,0,0,0,0,0,0,0,0,0,0,0,0,0,0,0,0,0,0,0,0,0,0,0,0,0,0,0,0,0,0,0,0,0,0,0,0,0,0,0,0,0,0,0,0,0,0,0,0
0,0,0,0,0,0,0,0,0,0,0,0,0,0,0,0,0,0,0,0,0,0,0,0,0,0,0,0,0,0,0,0,0,0,0,0,0,0,0,0,0,0,0,0,0,0,0,0,0,0,0,0,0,0,0,0,0,0,0,0,0,0,0,0,0,0,0,0,0,0,0,0,0,0,0,0,0,0,0,0,0,0,0,0,0,0,0,0,0,0,0,0,0,0,0,0,0,0,0,0,0,0,0,0,0,0,0,0,0,0,0,0,0,0,0,0,0,0,0,0,0,94,89,0,0,0,0,0,0,0,0,0,0,0,0,0,0,0,0,74,0,92,106,120,117,117,0,109,0,0,0,0,0,0,0,89,83,89,89,91,87,93,100,110,114,118,111,116,103,0,0,106,0,0,115,125,128,115,105,103,96.00001,99.00001,112,117,123,133,121,123,120,116,114,128,0,136,129,0,128,121,131,143,149,151,146,142,145,143,147,147,148,140,132,127,124,127,129,141,134,148,147,143,134,142,132,135,148,158,162,164,161,158,155,156,157,159,164,172,166,172,181,0,0,0,0,0,2,252,246,239,234,231,230,230,230,228,229,228,227,226,225,222,222,221,220,221,222,220,220,220,220,220,221,223,225,228,233,238,245,251,0,5,5,0,0,0,0,0,0,0,90,84,82,71,68,60,55,52,51,49,46,43,40,36,33,33,32,33,36,41,45,52,55,59,66,72,81,89,95,97.00001,101,0,0,0,158,164,156,156,157,163,158,158,160,161,158,156,160,0,0,168,171,174,174,174,168,163,163,159,160,155,157,163,168,162,0,154,0,0,0,0,0,0,0,0,0,0,0,0,0,0,0,0,0,0,0,0,0,125,125,126,132,0,0,132,122,118,114,108,113,115,106,111,112,110,114,136,138,139,146,143,144,138,0,135,139,136,136,136,143,137,136,138,137,135,143,142,137,132,131,122,114,114,117,105,104,109,113,112,119,0,111,111,113,121,127,119,114,115,111,110,107,112,103,97.00001,97.00001,101,95,98.00001,97.00001,88,86,79,75,81,80,78,80,81,81,86,88,90,89,87,83,83,97.00001,100,104,95,104,89,86,79,90,77,80,78,84,79,83,85,80,71,69,64,58,59,72,76,66,63,71,59,57,67,69,62,57,58,51,47,55,62,60,59,63,54,44,36,38,29,31,27,29,23,22,17,24,16,12,16,9,254,1,8,4,8,0,0,245,0,0,0,0,0,15,0,0,0,0,0,0,0,0,0,0,0,0,0,0,0,0,0,0,0,0,0,0,0,0,0,0,0,0,0,0,0,0,0,0,0,0,0,0,0,0,0,0,0,0,0,0,0,0,0,0,0,0,0,0,0,0,0,0,0,0,0,0,0,0,0,0,0,0,0,0,0,0,0,0,0,0,0,0,0,0,0,0,0,0,0,0,0,0,0,0,0,0,0,0,0,0,0,0,0,0,0,0,0,0,0
0,0,0,0,0,0,0,0,0,0,0,0,0,0,0,0,0,0,0,0,0,0,0,0,0,0,0,0,0,0,0,0,0,0,0,0,0,0,0,0,0,0,0,0,0,0,0,0,0,0,0,0,0,0,0,0,0,0,0,0,0,0,0,0,0,0,0,0,0,0,0,0,0,0,0,0,0,0,0,0,0,0,0,0,0,0,0,0,0,0,0,0,0,0,0,0,0,0,0,0,0,0,0,0,0,0,0,0,0,0,0,0,0,0,89,0,0,0,0,0,120,111,108,0,0,0,0,0,0,0,0,0,0,0,0,0,0,0,0,80,98.00001,108,122,131,131,0,131,119,0,0,0,0,0,0,0,0,119,122,113,110,109,114,119,133,140,144,134,142,0,0,0,127,0,0,125,133,142,141,139,134,122,122,131,136,145,156,146,143,138,129,126,135,0,150,0,0,155,148,154,159,162,163,160,158,161,155,163,159,164,156,156,148,148,150,150,158,153,161,161,167,150,156,153,154,158,170,174,176,171,174,170,170,170,173,170,181,177,191,207,0,0,0,0,0,247,244,242,236,235,232,230,230,230,227,228,226,225,224,223,221,222,220,220,220,221,219,219,220,220,220,221,224,226,229,234,240,245,252,2,3,255,0,0,0,0,0,0,85,87,80,76,69,64,59,56,54,52,51,46,44,41,38,35,34,32,33,34,37,43,53,54,62,67,74,81,89,94,96.00001,99.00001,0,0,179,183,191,181,181,0,179,178,179,180,179,175,0,0,0,0,189,188,184,189,189,179,176,184,179,174,175,175,175,180,177,176,168,0,0,0,0,0,0,0,0,0,0,0,0,0,0,0,0,0,0,0,0,0,133,133,132,0,130,0,0,137,133,130,120,117,117,108,110,113,112,115,142,147,152,163,154,153,147,140,142,143,141,144,145,147,152,157,153,155,157,159,154,157,151,147,140,135,130,134,127,130,135,142,136,0,130,139,132,132,128,134,123,121,126,132,130,130,135,135,124,122,127,119,119,114,107,104,100,93,103,101,99.00001,97.00001,99.00001,93,96.00001,95,98.00001,94,94,94,97.00001,110,118,118,112,123,108,105,97.00001,99.00001,84,89,82,88,81,86,87,88,75,76,70,68,66,79,85,87,80,91,81,76,77,87,78,74,73,67,59,68,71,75,73,82,71,65,51,53,42,48,44,52,54,52,52,55,47,44,47,36,0,18,25,20,24,25,25,11,0,0,0,38,44,33,0,0,0,0,0,0,0,0,0,0,0,0,0,0,0,0,0,0,0,0,0,0,0,0,0,0,0,0,0,0,0,0,0,0,0,0,0,0,0,0,0,0,0,0,0,0,0,0,0,0,0,0,0,0,0,0,0,0,0,0,0,0,0,0,0,0,0,0,0,0,0,0,0,0,0,0,0,0,0,0,0,0,0,0,0,0,0,0,0,0,0,0,0,0,0,0,0,0,0,0,0,0,0,0,0
0,0,0,0,0,0,0,0,0,0,0,0,0,0,0,0,0,0,0,0,0,0,0,0,0,0,0,0,0,0,0,0,0,0,0,0,0,0,0,0,0,0,0,0,0,0,0,0,0,0,0,0,0,0,0,0,0,0,0,0,0,0,0,0,0,0,0,0,0,0,0,0,0,0,0,0,0,0,0,0,0,0,0,0,0,0,0,0,0,0,0,0,0,0,0,0,0,0,0,0,96.00001,0,0,0,0,0,0,0,0,0,0,0,0,0,108,0,129,143,0,0,0,0,0,0,0,0,0,0,0,0,0,0,0,0,0,0,0,0,0,88,108,123,136,135,139,143,145,138,0,0,0,0,0,0,0,0,0,0,140,131,129,132,140,148,0,160,152,161,144,0,0,0,0,0,129,0,0,0,0,0,150,140,151,158,163,170,172,163,162,150,148,0,0,166,174,171,164,154,162,161,170,171,167,166,176,173,182,182,183,172,174,167,167,166,170,172,171,176,174,177,169,172,173,186,189,196,200,200,195,192,193,190,189,188,188,197,194,0,221,241,0,0,0,233,242,241,240,236,235,233,231,230,231,229,227,225,223,222,221,220,221,219,219,218,219,218,218,219,219,218,220,223,225,229,235,241,246,252,0,1,253,0,0,0,0,0,0,86,85,77,72,66,61,59,56,53,52,50,47,44,42,39,36,34,31,33,34,37,42,50,55,62,66,73,78,85,88,93,94,0,0,199,206,209,204,196,207,195,195,199,204,197,197,194,190,187,188,191,196,192,204,209,205,204,214,205,199,200,196,190,197,186,180,173,175,160,0,0,0,0,0,0,0,0,0,0,0,0,0,0,0,0,0,0,0,148,147,146,0,0,0,0,151,146,142,134,129,124,112,113,114,113,115,146,159,167,178,170,166,157,0,0,0,150,153,152,152,168,176,175,180,179,175,170,171,161,160,151,147,146,154,154,160,168,174,169,171,158,161,152,145,139,145,139,137,144,151,145,144,147,146,140,140,145,131,129,122,119,118,128,123,133,128,126,115,118,108,109,105,110,101,97.00001,105,107,113,129,135,131,136,126,115,111,108,95,97.00001,94,96.00001,91,91,92,95,83,86,92,90,85,91,92,89,90,95,99.00001,93,93,95,88,83,89,86,84,89,90,91,88,92,88,82,74,75,71,71,72,78,75,68,70,66,59,59,63,58,0,0,0,0,0,35,0,35,0,40,43,51,52,46,0,0,0,0,0,0,0,0,0,0,0,0,0,0,0,0,0,0,0,0,0,0,0,0,0,0,0,0,0,0,0,0,0,0,0,0,0,0,0,0,0,0,0,0,0,0,0,0,0,0,0,0,0,0,0,0,0,0,0,0,0,0,0,0,0,0,0,0,0,0,0,0,0,0,0,0,0,0,0,0,0,0,0,0,0,0,0,0,0,0,0,0,0,0,0,0,0,0,0,0,0,0,0,0,0
0,0,0,0,0,0,0,0,0,0,0,0,0,0,0,0,0,0,0,0,0,0,0,0,0,0,0,0,0,0,0,0,0,0,0,0,0,0,0,0,0,0,0,0,0,0,0,0,0,0,0,0,0,0,0,0,0,0,0,0,0,0,0,0,0,0,0,0,0,0,0,0,0,0,0,0,0,0,0,0,0,0,0,0,0,0,0,0,0,0,0,0,0,0,0,0,0,0,0,0,0,0,0,0,0,0,0,0,0,0,0,0,0,108,119,0,141,156,162,0,0,0,0,0,0,0,0,0,0,0,0,0,0,0,0,0,0,0,0,100,115,132,146,145,156,161,159,149,0,0,0,0,0,0,0,0,0,0,0,0,146,143,148,146,155,159,162,171,167,0,0,0,0,0,149,143,163,167,172,0,0,169,179,0,193,194,200,183,180,0,154,151,180,173,183,182,176,167,180,179,185,194,192,185,192,188,200,197,205,192,196,182,185,183,189,181,187,190,197,0,207,204,207,208,210,215,215,214,214,210,209,207,205,201,200,202,209,221,241,0,0,0,0,234,238,239,239,236,235,232,230,227,227,225,224,222,220,219,218,217,217,216,216,217,218,217,218,219,218,219,221,225,226,231,235,241,245,251,255,255,249,0,0,0,0,0,81,84,82,78,69,65,62,60,56,55,52,50,46,44,42,40,37,36,32,31,32,34,37,45,53,61,66,72,77,85,85,87,0,0,0,0,240,239,232,220,225,212,214,223,227,223,225,219,207,201,204,205,209,206,216,219,214,217,229,225,216,218,209,202,202,0,0,195,192,0,0,0,0,0,0,0,0,0,0,0,0,0,0,165,0,0,0,0,0,0,0,0,0,0,0,0,164,159,152,144,141,126,114,115,113,112,117,148,164,170,183,177,181,173,169,172,171,162,172,174,160,173,185,185,195,0,0,196,191,185,177,175,168,164,173,182,186,192,197,184,188,181,179,175,170,163,167,166,159,163,167,164,158,161,155,153,146,160,148,155,148,151,144,155,148,153,151,149,137,141,129,124,120,125,115,112,114,120,122,140,145,145,146,137,127,126,125,115,112,108,107,104,100,104,106,95,98.00001,0,99.00001,95,102,104,106,115,120,123,120,122,119,110,106,104,103,101,103,102,103,98.00001,100,100,99.00001,95,94,87,86,85,89,88,91,87,79,71,72,71,76,0,0,0,70,70,59,66,62,56,56,56,57,53,50,0,0,0,0,0,0,0,0,0,0,0,0,0,0,0,0,0,0,0,0,0,0,0,0,0,0,0,0,0,0,0,0,0,0,0,0,0,0,0,0,0,0,0,0,0,0,0,0,0,0,0,0,0,0,0,0,0,0,0,0,0,0,0,0,0,0,0,0,0,0,0,0,0,0,0,0,0,0,0,0,0,0,0,0,0,0,0,0,0,0,0,0,0,0,0,0,0,0,0,0,0,0,0,0,0
0,0,0,0,0,0,0,0,0,0,0,0,0,0,0,0,0,0,0,0,0,0,0,0,0,0,0,0,0,0,0,0,0,0,0,0,0,0,0,0,0,0,0,0,0,0,0,0,0,0,0,0,0,0,0,0,0,0,0,0,0,0,0,0,0,0,0,0,0,0,0,0,0,0,0,0,0,0,0,0,0,0,0,0,0,0,0,0,0,0,0,0,0,0,0,0,0,106,118,0,0,0,0,0,0,0,0,0,138,0,0,133,129,0,137,0,0,0,0,0,165,0,142,0,0,0,0,0,0,0,0,0,0,0,0,0,0,0,0,0,127,0,157,155,172,174,165,159,0,0,0,0,0,0,0,0,195,0,181,0,168,0,161,164,172,178,184,190,188,0,0,0,0,0,0,149,163,178,186,195,205,0,198,199,0,0,0,0,0,0,0,171,193,188,195,197,191,180,194,192,200,210,214,208,214,209,215,214,215,206,209,195,195,0,202,0,203,203,211,216,226,229,227,226,220,220,219,227,226,225,226,225,218,216,216,213,224,238,0,0,0,0,227,238,238,239,239,237,234,232,229,228,226,224,222,221,219,218,217,217,216,216,215,216,217,216,217,219,219,220,222,226,228,233,237,242,245,250,253,253,249,0,0,0,0,0,80,87,82,78,70,66,62,61,57,55,51,49,45,45,43,40,37,35,32,31,31,32,35,43,50,59,64,71,75,81,81,86,82,0,0,0,9,1,255,247,248,237,240,246,247,243,235,0,0,205,211,219,221,216,224,224,222,234,246,249,244,245,234,230,233,0,0,219,0,0,0,0,0,0,0,0,0,0,0,0,0,203,197,189,181,159,0,0,0,0,0,0,0,0,0,0,0,178,168,159,153,132,119,115,114,114,119,151,179,197,208,208,208,193,181,181,181,173,185,179,175,190,205,204,219,0,214,0,202,188,180,179,174,170,185,199,206,210,219,206,205,199,198,186,184,175,176,175,174,179,185,180,177,179,171,167,168,179,171,177,171,170,159,168,160,162,160,161,152,156,151,147,144,140,133,125,124,131,132,144,153,157,156,153,144,142,140,135,134,131,121,115,106,108,116,118,128,0,130,126,124,117,119,121,122,130,128,131,132,132,133,132,129,127,122,115,116,114,113,111,115,110,109,103,102,101,104,100,101,99.00001,90,83,87,87,94,100,89,86,82,80,70,84,79,73,72,64,61,57,60,0,0,0,0,0,0,0,0,0,0,0,0,0,0,0,0,0,0,0,0,0,0,0,0,0,0,0,0,0,0,0,0,0,0,0,0,0,0,0,0,0,0,0,0,0,0,0,0,0,0,0,0,0,0,0,0,0,0,0,0,0,0,0,0,0,0,0,0,0,0,0,0,0,0,0,0,0,0,0,0,0,0,0,0,0,0,0,0,0,0,0,0,0,0,0,0,0,0,0,0,0,0,0,0,0
0,0,0,0,0,0,0,0,0,0,0,0,0,0,0,0,0,0,0,0,0,0,0,0,0,0,0,0,0,0,0,0,0,0,0,0,0,0,0,0,0,0,0,0,0,0,0,0,0,0,0,0,0,0,0,0,0,0,0,0,0,0,0,0,0,0,0,0,0,0,0,0,0,0,0,0,0,0,0,0,0,0,0,0,0,0,0,0,0,0,0,0,0,0,0,0,0,0,139,134,0,136,136,0,0,0,0,0,147,152,0,0,0,0,0,165,170,179,185,181,0,0,0,0,0,0,0,0,0,0,0,0,0,0,0,0,0,0,0,0,144,157,167,0,187,184,184,183,0,168,0,0,0,0,0,0,0,0,0,0,0,0,0,0,189,190,204,208,219,213,209,202,0,0,0,0,0,185,191,201,217,213,219,0,0,0,0,0,0,0,0,0,215,203,206,210,200,197,209,207,210,214,219,213,218,221,230,230,236,223,216,206,212,215,226,218,228,223,227,232,245,245,240,233,232,0,229,239,238,236,244,245,237,240,238,231,0,0,0,0,0,0,228,236,236,237,236,234,232,229,227,225,224,222,221,219,218,217,215,215,215,213,213,214,214,214,215,216,217,221,223,228,230,234,236,241,246,249,252,253,248,224,0,0,0,0,79,86,83,76,71,67,63,60,56,55,52,49,45,44,41,39,36,35,31,31,30,30,34,41,47,59,65,70,75,81,84,87,84,57,0,0,31,17,16,8,12,0,3,3,9,7,254,248,235,217,219,220,222,216,230,230,238,250,10,9,4,1,248,242,245,0,0,236,236,0,0,0,0,0,0,0,0,0,0,0,0,0,0,0,0,0,0,0,0,0,0,0,0,0,0,0,0,207,193,180,164,136,122,115,114,114,119,152,183,201,214,217,218,211,201,199,196,192,199,201,195,210,223,220,222,0,210,208,204,201,190,200,197,196,205,223,222,226,230,221,213,206,204,198,195,191,194,193,190,200,200,197,196,200,190,195,191,200,193,194,187,190,177,185,181,179,174,177,163,168,164,162,161,164,154,149,145,144,141,151,155,159,156,159,153,153,147,147,140,138,124,128,121,126,129,143,145,0,143,143,138,132,135,148,143,148,149,147,146,146,147,144,139,135,131,124,123,125,123,119,119,116,109,105,107,109,113,119,125,128,121,113,107,106,107,115,113,114,104,95,85,99.00001,92,88,88,74,66,64,0,0,0,0,0,0,0,0,0,0,0,0,0,0,0,0,0,0,0,0,0,0,0,0,0,0,0,0,0,0,0,0,0,0,0,0,0,0,0,0,0,0,0,0,0,0,0,0,0,0,0,0,0,0,0,0,0,0,0,0,0,0,0,0,0,0,0,0,0,0,0,0,0,0,0,0,0,0,0,0,0,0,0,0,0,0,0,0,0,0,0,0,0,0,0,0,0,0,0,0,0,0,0,0,0,0
0,0,0,0,0,0,0,0,0,0,0,0,0,0,0,0,0,0,0,0,0,0,0,0,0,0,0,0,0,0,0,0,0,0,0,0,0,0,0,0,0,0,0,0,0,0,0,0,0,0,0,0,0,0,0,0,0,0,0,0,0,0,0,0,0,0,0,0,0,0,0,0,0,0,0,0,0,0,0,0,0,0,0,0,0,0,0,0,0,0,0,0,0,0,0,0,0,0,0,0,0,0,0,0,0,0,0,0,0,170,0,0,0,162,177,183,190,194,195,0,0,0,0,0,0,0,0,0,0,0,0,0,0,0,0,0,0,0,0,0,0,180,0,0,0,0,0,205,215,203,196,200,0,0,0,0,0,0,0,0,0,0,0,200,209,212,228,228,249,237,238,0,0,0,0,0,0,0,197,208,225,225,237,240,0,0,0,0,0,0,0,0,230,221,218,218,210,209,220,224,224,226,229,222,226,0,0,0,0,242,233,221,225,235,248,241,251,248,248,242,253,1,2,251,2,253,1,9,12,1,13,6,253,255,4,250,3,15,0,0,0,0,229,234,235,235,234,232,229,226,225,224,222,221,221,219,218,216,215,214,213,211,211,212,211,212,213,214,216,220,223,227,231,235,238,241,245,249,254,254,253,0,0,0,0,0,79,83,82,79,72,68,64,60,56,54,48,48,44,42,39,38,33,32,30,29,28,30,32,38,47,57,62,70,74,81,82,89,85,0,0,0,0,31,0,29,29,22,23,15,21,21,13,8,4,246,244,242,239,235,245,247,4,17,27,24,24,21,17,14,12,0,8,4,255,0,0,0,0,0,0,0,0,0,0,0,0,0,0,0,0,0,0,0,0,0,0,0,0,0,0,0,213,224,208,195,176,139,122,117,115,114,121,153,190,212,225,242,245,232,222,220,216,210,214,209,201,209,222,225,230,234,221,227,222,217,219,231,223,222,228,234,230,231,238,233,221,220,219,214,220,227,227,224,217,217,213,211,206,207,198,196,202,213,209,203,201,203,188,197,196,195,189,197,185,189,183,181,178,179,173,171,166,162,159,163,165,166,164,168,164,164,164,165,160,162,145,148,140,146,144,161,167,0,165,171,166,156,151,160,157,159,160,157,152,151,152,148,147,147,141,135,134,135,132,129,129,126,120,115,117,117,120,121,128,129,128,125,122,118,126,128,130,133,131,120,112,113,109,101,106,91,0,0,0,0,0,0,0,0,0,0,0,0,0,0,0,0,0,0,0,0,0,0,0,0,0,0,0,0,0,0,0,0,0,0,0,0,0,0,0,0,0,0,0,0,0,0,0,0,0,0,0,0,0,0,0,0,0,0,0,0,0,0,0,0,0,0,0,0,0,0,0,0,0,0,0,0,0,0,0,0,0,0,0,0,0,0,0,0,0,0,0,0,0,0,0,0,0,0,0,0,0,0,0,0,0,0,0,0
0,0,0,0,0,0,0,0,0,0,0,0,0,0,0,0,0,0,0,0,0,0,0,0,0,0,0,0,0,0,0,0,0,0,0,0,0,0,0,0,0,0,0,0,0,0,0,0,0,0,0,0,0,0,0,0,0,0,0,0,0,0,0,0,0,0,0,0,0,0,0,0,0,0,0,0,0,0,0,0,0,0,0,0,0,0,0,0,0,0,0,0,0,0,0,0,0,0,0,0,0,0,0,0,0,0,0,0,0,188,0,176,0,0,0,182,187,0,195,0,197,0,187,180,178,0,0,0,0,0,0,0,0,0,0,0,0,0,0,0,0,0,214,0,0,0,0,0,0,0,0,0,0,0,0,0,0,0,247,254,242,0,0,0,221,228,242,241,4,0,0,0,0,223,228,224,0,0,223,233,241,244,252,251,252,0,0,0,0,0,0,0,239,238,236,244,234,236,239,246,242,242,245,239,237,0,252,7,15,7,255,248,245,1,7,2,8,7,7,9,17,26,21,7,10,6,9,23,27,17,33,27,18,18,20,7,17,0,0,0,0,223,229,235,235,234,233,231,228,225,223,222,220,219,219,218,217,215,215,213,212,211,210,210,211,211,212,214,217,220,225,229,232,235,237,240,245,250,1,0,1,0,0,0,0,60,76,81,79,77,73,69,65,61,56,53,49,47,43,41,37,36,33,32,29,28,28,30,32,37,47,57,65,71,76,80,84,87,86,0,0,0,0,49,0,41,41,42,42,35,39,39,24,22,22,9,7,12,6,4,7,3,13,22,28,38,39,0,32,30,26,29,24,32,0,0,0,0,0,0,0,0,0,0,0,0,0,0,0,0,0,0,0,0,0,0,0,0,0,0,0,0,0,230,216,199,176,137,123,115,115,114,121,158,203,223,240,250,7,246,243,241,241,234,244,238,0,242,246,248,251,255,244,252,250,243,240,253,246,240,245,246,242,238,246,244,239,236,238,237,242,248,244,242,237,233,229,233,227,225,220,214,218,229,234,229,231,229,213,212,214,216,211,220,214,213,209,208,205,205,199,195,189,181,175,174,175,173,173,180,182,181,184,191,187,186,178,172,167,170,166,171,182,0,0,0,0,0,180,185,182,170,172,166,161,157,159,153,153,152,147,141,141,143,141,137,141,137,131,126,128,122,125,125,130,129,131,129,128,127,132,132,134,136,134,127,129,126,124,119,120,107,0,0,0,0,0,0,0,0,0,0,0,0,0,0,0,0,0,0,0,0,0,0,0,0,0,0,0,0,0,0,0,0,0,0,0,0,0,0,0,0,0,0,0,0,0,0,0,0,0,0,0,0,0,0,0,0,0,0,0,0,0,0,0,0,0,0,0,0,0,0,0,0,0,0,0,0,0,0,0,0,0,0,0,0,0,0,0,0,0,0,0,0,0,0,0,0,0,0,0,0,0,0,0,0,0,0,0,0
0,0,0,0,0,0,0,0,0,0,0,0,0,0,0,0,0,0,0,0,0,0,0,0,0,0,0,0,0,0,0,0,0,0,0,0,0,0,0,0,0,0,0,0,0,0,0,0,0,0,0,0,0,0,0,0,0,0,0,0,0,0,0,0,0,0,0,0,0,0,0,0,0,0,0,0,0,0,0,0,0,0,0,0,0,0,0,0,0,0,0,0,0,0,0,0,0,0,0,0,0,179,0,0,0,0,0,0,0,0,0,0,0,0,0,203,204,0,203,0,201,193,195,194,191,0,0,0,0,0,0,0,0,0,0,0,0,0,0,0,0,0,0,0,0,0,0,0,0,0,0,0,0,0,0,0,0,0,0,0,254,4,7,4,254,10,13,12,24,0,0,0,0,252,255,252,0,245,239,247,249,250,255,1,0,3,0,3,8,5,9,12,5,4,4,7,3,12,12,18,14,8,5,252,249,0,15,25,34,28,18,13,7,27,28,23,23,26,16,18,19,31,22,13,18,15,18,31,37,28,46,44,39,41,40,33,37,0,0,0,0,225,230,233,234,233,232,230,227,224,223,221,220,218,218,216,216,214,215,214,213,211,210,209,209,210,211,214,217,220,224,228,232,235,238,240,246,251,0,2,3,240,0,0,0,57,71,78,77,75,71,68,63,58,53,52,48,45,40,39,36,34,31,31,29,28,28,30,33,38,46,56,65,71,75,80,85,87,86,77,0,0,0,63,48,48,47,49,48,46,50,58,37,37,46,33,22,29,23,20,23,19,29,33,37,55,58,0,56,50,43,44,39,42,45,0,0,0,0,0,0,0,0,0,0,0,0,0,0,0,0,0,0,0,0,0,0,0,0,0,0,0,0,0,227,208,177,141,125,119,120,119,126,165,0,0,0,8,20,5,8,9,9,0,9,6,8,10,16,11,8,9,0,11,15,9,10,17,9,0,1,255,250,245,254,0,252,251,253,250,0,1,252,246,243,235,232,238,240,234,235,229,236,241,251,240,246,244,235,228,234,236,225,233,228,222,221,219,215,217,213,207,205,196,191,186,188,184,183,189,192,192,196,209,207,212,205,198,194,193,0,190,203,196,0,0,0,194,197,200,194,182,180,173,171,169,168,165,164,160,155,155,154,158,156,152,151,144,138,133,135,128,131,132,135,134,136,136,136,137,140,140,141,144,142,141,145,142,143,137,134,122,0,0,0,139,145,138,136,0,0,0,0,0,0,0,0,0,0,0,0,0,0,81,0,69,72,71,0,0,0,0,0,0,0,0,0,0,0,0,0,0,0,0,0,0,0,0,0,0,0,0,0,0,0,0,0,0,0,0,0,0,0,0,0,0,0,0,0,0,0,0,0,0,0,0,0,0,0,0,0,0,0,0,0,0,0,0,0,0,0,0,0,0,0,0,0,0,0,0,0,0,0,0,0,0,0,0,0,0
0,0,0,0,0,0,0,0,0,0,0,0,0,0,0,0,0,0,0,0,0,0,0,0,0,0,0,0,0,0,0,0,0,0,0,0,0,0,0,0,0,0,0,0,0,0,0,0,0,0,0,0,0,0,0,0,0,0,0,0,0,0,0,0,0,0,0,0,0,0,0,0,0,0,0,0,0,0,0,0,0,0,0,0,0,0,0,0,153,0,0,0,0,0,0,0,0,0,0,0,0,0,0,0,0,0,0,0,202,0,199,194,0,0,0,213,220,224,215,227,219,218,215,215,0,0,0,0,0,0,0,0,0,0,0,0,0,0,0,0,0,0,0,8,0,16,18,28,0,0,0,0,0,32,0,0,0,0,0,0,18,24,30,29,20,27,22,0,0,0,0,0,25,16,19,0,0,0,255,5,7,7,15,20,25,24,16,15,20,17,25,30,24,22,20,25,26,35,35,38,30,19,22,21,23,0,34,34,35,30,25,28,23,44,43,41,34,40,31,29,24,0,35,27,34,37,37,44,48,43,56,56,54,59,0,56,0,0,0,0,0,224,227,230,231,231,229,228,226,223,220,219,218,217,217,214,214,211,212,211,211,209,208,208,208,210,211,214,217,220,224,229,232,235,238,241,245,253,2,4,1,242,0,0,0,57,70,75,75,73,69,65,60,56,53,50,45,43,39,37,34,32,30,30,29,29,30,32,34,38,45,54,64,72,77,79,84,85,87,81,0,0,0,0,63,64,63,68,67,62,65,70,47,46,54,42,33,42,35,34,39,39,47,53,61,74,76,0,63,55,45,47,47,54,0,0,0,0,0,0,0,0,0,0,0,0,0,0,0,0,0,0,0,0,0,0,0,0,0,0,0,0,0,0,0,207,173,137,126,121,121,121,129,173,0,0,0,26,40,37,44,43,37,27,29,23,19,20,24,0,18,21,19,27,30,25,26,27,27,19,17,11,8,0,8,13,11,9,6,8,14,13,7,7,0,248,247,255,2,249,249,243,246,243,3,254,3,5,9,251,252,253,242,245,242,242,244,247,238,240,232,225,221,212,207,203,203,199,199,204,207,208,210,219,214,218,214,0,0,213,0,202,215,205,0,214,227,217,218,218,208,197,194,186,183,179,175,174,178,174,173,179,176,179,182,177,172,165,156,145,147,136,137,139,146,143,147,148,148,143,147,145,150,152,155,154,157,148,149,145,148,147,160,155,172,156,157,0,0,0,0,0,0,0,0,0,0,0,0,0,0,0,99.00001,93,87,77,77,0,0,0,0,0,0,0,0,0,0,0,0,0,0,0,0,0,0,0,0,0,0,0,0,0,0,0,0,0,0,0,0,0,0,0,0,0,0,0,0,0,0,0,0,0,0,0,0,0,0,0,0,0,0,0,0,0,0,0,0,0,0,0,0,0,0,0,0,0,0,0,0,0,0,0,0,0,0,0,0,0,0,0
0,0,0,0,0,0,0,0,0,0,0,0,0,0,0,0,0,0,0,0,0,0,0,0,0,0,0,0,0,0,0,0,0,0,0,0,0,0,0,0,0,0,0,0,0,0,0,0,0,0,0,0,0,0,0,0,0,0,0,0,0,0,0,0,0,0,0,0,0,0,0,0,0,0,0,0,0,0,0,0,0,0,0,0,0,0,0,0,0,0,0,0,0,0,0,0,0,0,0,0,0,0,0,0,0,0,0,0,219,220,218,212,217,221,214,229,233,244,225,238,224,0,225,0,227,0,0,0,0,0,0,0,0,0,0,0,0,0,0,0,0,0,0,33,0,0,0,0,0,0,0,0,51,49,0,0,0,0,0,0,0,0,0,37,23,36,33,0,0,0,0,0,0,0,27,0,0,0,17,22,21,29,33,43,39,39,27,26,23,24,35,40,41,42,41,40,36,42,44,47,45,46,49,46,52,0,53,51,43,41,41,41,37,60,56,53,43,52,45,52,41,0,54,50,50,56,55,65,65,60,67,65,61,68,71,71,0,0,0,0,0,224,227,228,230,229,227,226,224,220,218,217,216,214,214,212,211,210,210,210,209,209,207,206,207,210,211,215,217,220,223,227,230,233,237,242,248,253,4,6,4,242,0,0,0,61,71,75,73,70,67,62,57,54,51,47,44,41,37,36,33,32,31,30,30,30,30,32,34,37,42,50,62,70,76,80,84,86,85,80,0,0,0,0,81,81,81,84,84,0,91,89,67,71,72,66,54,70,0,55,56,58,58,69,75,89,94,97.00001,85,75,61,61,0,70,0,0,0,0,0,0,0,0,0,0,0,0,0,0,0,0,0,0,0,0,0,0,0,0,0,0,0,0,0,0,0,0,173,137,128,123,123,125,130,172,0,0,0,48,59,52,66,57,56,50,53,45,51,42,40,35,33,30,34,45,48,44,44,40,41,31,30,23,18,6,15,20,22,23,25,26,32,25,17,14,8,0,2,14,18,11,16,7,7,2,13,11,13,17,26,0,15,15,8,8,10,4,7,8,0,255,247,237,235,227,220,212,216,213,217,223,230,232,233,238,239,242,0,236,0,231,224,215,0,0,224,232,248,232,233,231,221,206,203,195,195,190,186,182,190,186,190,197,204,204,210,201,200,192,189,171,175,153,152,146,155,147,157,157,158,153,161,156,161,163,166,166,169,159,160,160,156,156,163,157,160,157,0,0,0,0,0,0,0,0,0,0,0,0,0,0,127,120,114,110,104,94,98.00001,0,0,0,0,0,0,0,0,0,0,0,0,0,0,0,0,0,0,0,0,0,0,0,0,0,0,0,0,0,0,0,0,0,0,0,0,0,0,0,0,0,0,0,0,0,0,0,0,0,0,0,0,0,0,0,0,0,0,0,0,0,0,0,0,0,0,0,0,0,0,0,0,0,0,0,0,0,0,0,0,0,0,0
0,0,0,0,0,0,0,0,0,0,0,0,0,0,0,0,0,0,0,0,0,0,0,0,0,0,0,0,0,0,0,0,0,0,0,0,0,0,0,0,0,0,0,0,0,0,0,0,0,0,0,0,0,0,0,0,0,0,0,0,0,0,0,0,0,0,0,0,0,0,0,0,0,0,0,0,0,0,0,0,0,0,0,0,0,0,0,0,0,0,0,0,175,0,0,0,0,0,0,0,0,0,0,0,245,0,0,223,221,222,223,216,223,226,220,232,236,248,241,0,0,0,239,240,239,241,0,0,0,0,0,0,0,0,0,0,0,0,0,0,0,0,0,0,0,0,0,0,0,0,0,83,0,69,0,0,0,0,0,0,0,0,0,59,46,0,0,0,0,0,0,0,0,58,52,0,0,0,0,39,35,47,45,0,48,54,41,39,35,43,53,59,66,66,61,58,49,55,60,65,64,74,72,72,72,79,73,70,58,59,56,55,53,76,70,65,57,63,55,59,0,0,53,54,54,64,61,73,67,65,70,70,67,74,79,80,0,0,0,0,0,225,227,229,229,228,226,224,221,219,217,215,214,213,212,212,211,209,210,209,208,208,206,206,207,210,211,216,218,221,222,226,230,234,238,244,250,1,5,7,6,241,0,0,0,63,71,73,71,67,64,60,57,54,50,46,43,40,37,35,33,32,31,30,30,31,30,32,33,35,39,47,58,70,74,80,84,85,84,79,0,0,0,0,102,99.00001,102,101,105,0,0,110,0,0,0,0,0,0,0,83,70,69,66,79,87,107,112,116,105,88,75,0,0,91,0,0,0,0,0,0,0,0,0,0,0,0,0,0,0,0,0,0,0,0,0,0,0,0,0,0,0,0,0,0,0,0,169,135,128,125,125,124,133,173,0,0,0,0,62,61,75,62,66,61,70,66,73,68,61,51,50,49,53,66,69,65,56,47,48,41,42,38,38,24,30,35,43,40,41,42,42,33,27,28,22,17,15,26,29,28,32,30,27,21,32,34,33,39,47,37,33,31,21,18,15,9,13,15,7,6,3,249,248,242,240,231,239,235,239,241,244,239,240,247,250,2,0,0,0,0,249,243,249,244,242,245,0,0,242,241,230,220,215,215,217,220,217,0,218,209,205,213,214,213,219,206,202,197,200,188,196,0,174,170,180,172,179,182,178,172,175,167,170,172,171,171,173,167,164,165,162,166,167,167,171,171,171,0,0,0,0,0,0,0,0,0,0,0,139,142,134,134,125,118,109,100,99.00001,0,0,0,0,0,0,0,0,0,0,0,0,0,0,0,0,0,0,0,0,0,0,0,0,0,0,0,0,0,0,0,0,0,0,0,0,0,0,0,0,0,0,0,0,0,0,0,0,0,0,0,0,0,0,0,0,0,0,0,0,0,0,0,0,0,0,0,0,0,0,0,0,0,0,0,0,0,0,0,0,0,0,0
0,0,0,0,0,0,0,0,0,0,0,0,0,0,0,0,0,0,0,0,0,0,0,0,0,0,0,0,0,0,0,0,0,0,0,0,0,0,0,0,0,0,0,0,0,0,0,0,0,0,0,0,0,0,0,0,0,0,0,0,0,0,0,0,0,0,0,0,0,0,0,0,0,0,0,0,0,0,0,0,0,0,0,0,0,0,0,0,0,0,0,0,187,0,0,0,0,0,0,0,0,0,0,0,246,0,0,0,229,225,228,217,226,223,230,245,252,1,6,0,0,0,11,11,5,250,0,0,0,0,0,0,0,0,0,0,0,0,0,0,0,0,0,0,0,0,0,61,69,73,71,81,81,77,0,0,0,0,0,0,0,0,0,74,67,71,71,0,0,0,70,0,0,69,63,0,0,0,0,0,48,0,0,0,0,0,0,63,60,62,73,74,86,86,85,76,69,64,70,65,66,79,0,0,98.00001,98.00001,97.00001,91,70,64,68,63,66,89,91,86,83,79,81,82,71,0,81,77,0,80,79,78,69,67,66,66,71,84,96.00001,105,114,0,0,0,0,226,228,229,229,227,225,222,219,216,214,213,212,211,210,211,210,209,209,209,207,207,206,206,207,210,212,215,218,219,220,225,228,232,238,244,254,3,10,7,4,240,0,0,0,68,73,73,70,64,61,59,55,52,48,45,41,39,37,34,33,33,31,31,31,32,30,32,32,34,36,44,54,66,74,80,82,84,80,76,0,0,0,0,0,122,0,119,125,0,0,121,0,108,110,111,0,0,0,96.00001,82,83,82,95,103,126,126,129,119,112,99.00001,0,0,117,0,0,0,0,0,0,0,0,0,0,0,0,0,0,0,0,0,0,0,0,0,0,0,0,0,0,0,0,0,0,0,0,173,136,131,128,127,126,137,178,0,31,0,0,0,78,82,74,76,77,80,82,88,80,75,70,63,62,71,83,82,82,70,57,61,56,55,61,61,44,48,57,66,61,61,60,56,45,40,40,36,30,27,35,36,39,43,41,39,33,38,43,48,52,61,56,49,43,33,28,25,18,23,28,20,20,20,12,12,15,11,2,12,0,0,7,8,255,254,5,2,13,19,25,0,0,0,0,15,16,11,12,9,0,255,255,245,240,233,237,238,246,242,248,236,226,219,226,227,225,232,219,210,203,211,198,0,200,193,192,208,202,209,215,206,194,197,190,191,196,197,192,186,179,172,177,177,179,176,177,172,170,169,183,0,0,0,0,0,0,0,0,172,0,0,154,144,144,135,125,122,113,0,0,0,0,0,0,0,0,0,0,0,0,0,0,0,0,0,0,0,0,0,0,0,0,0,0,0,0,0,0,0,0,0,0,0,0,0,0,0,0,0,0,0,0,0,0,0,0,0,0,0,0,0,0,0,0,0,0,0,0,0,0,0,0,0,0,0,0,0,0,0,0,0,0,0,0,0,0,0,0,0,0,0,0
0,0,0,0,0,0,0,0,0,0,0,0,0,0,0,0,0,0,0,0,0,0,0,0,0,0,0,0,0,0,0,0,0,0,0,0,0,0,0,0,0,0,0,0,0,0,0,0,0,0,0,0,0,0,0,0,0,0,0,0,0,0,0,0,0,0,0,0,0,0,0,0,0,0,0,0,0,0,0,0,0,0,0,0,0,0,0,0,0,0,0,0,0,199,0,0,0,0,229,232,248,246,245,251,249,0,0,0,249,240,242,229,236,0,245,0,4,6,14,0,0,0,18,19,16,1,0,0,0,0,0,0,0,0,0,0,0,0,0,0,0,0,0,0,0,0,0,75,83,81,84,88,88,82,91,89,0,0,0,0,0,0,0,89,84,0,86,93,97.00001,0,0,0,0,0,0,0,0,0,0,0,62,0,0,0,0,0,0,0,84,87,93,90,98.00001,98.00001,101,94,88,81,86,72,73,89,0,0,112,109,109,108,88,83,93,85,0,107,107,100,99.00001,94,102,103,90,95,92,0,88,0,0,0,89,88,0,89,91,100,113,112,0,0,0,0,0,224,226,227,227,225,223,220,217,214,212,211,211,211,209,210,209,208,207,208,207,207,206,206,207,210,211,214,218,220,220,224,229,233,238,246,254,4,10,9,9,250,0,0,0,70,72,74,70,65,62,58,56,52,49,45,41,38,37,35,34,34,33,33,33,33,32,32,32,34,37,42,53,64,71,79,81,83,78,75,0,0,0,0,0,0,0,0,150,0,0,139,137,0,141,0,0,0,0,0,103,106,104,115,128,0,139,140,133,123,123,0,0,156,0,0,170,172,0,0,0,0,0,0,0,0,0,0,0,0,0,0,0,0,0,0,0,0,0,0,0,0,0,0,0,0,168,133,129,127,127,126,139,178,0,58,85,0,95,108,103,93,95,95,93,96.00001,100,95,87,86,82,82,88,96.00001,89,86,0,0,80,90,90,94,93,66,65,75,79,71,77,76,75,65,60,61,56,50,47,55,52,54,54,54,49,47,50,55,59,65,71,69,67,61,53,44,46,40,43,57,51,44,38,34,28,31,28,26,34,0,0,0,28,20,20,18,12,18,27,34,0,0,0,0,31,32,29,0,0,0,20,16,6,3,3,5,7,13,10,10,3,1,244,246,250,0,246,239,230,225,228,0,0,0,212,216,225,220,227,233,217,204,213,0,217,229,237,222,205,193,181,182,183,185,182,181,177,175,175,183,184,0,0,0,0,0,186,0,182,0,168,164,153,152,150,144,0,0,0,0,0,0,0,0,0,0,0,0,0,0,0,0,0,0,0,0,0,0,0,0,0,0,0,0,0,0,0,0,0,0,0,0,0,0,0,0,0,0,0,0,0,0,0,0,0,0,0,0,0,0,0,0,0,0,0,0,0,0,0,0,0,0,0,0,0,0,0,0,0,0,0,0,0,0,0,0,0,0,0,0,0,0
0,0,0,0,0,0,0,0,0,0,0,0,0,0,0,0,0,0,0,0,0,0,0,0,0,0,0,0,0,0,0,0,0,0,0,0,0,0,0,0,0,0,0,0,0,0,0,0,0,0,0,0,0,0,0,0,0,0,0,0,0,0,0,0,0,0,0,0,0,0,0,0,0,0,0,0,0,0,0,0,0,0,0,0,0,0,0,0,0,0,0,0,0,215,0,0,0,0,229,0,245,0,0,0,4,0,9,5,7,2,5,0,1,249,4,17,17,22,35,31,30,28,33,33,0,0,0,0,0,0,0,0,0,0,0,0,0,0,62,0,75,75,0,0,76,78,78,80,88,90,91,91,92,87,94,90,91,0,0,0,0,0,0,0,0,0,96.00001,102,109,112,0,0,0,0,0,0,0,0,0,0,85,0,0,0,0,0,102,0,97.00001,101,104,101,106,115,123,115,104,98.00001,95,81,91,109,119,0,133,122,122,125,111,99.00001,108,98.00001,89,113,0,113,0,119,124,127,122,121,112,0,0,114,111,113,100,102,101,105,107,112,118,0,0,0,0,0,0,227,229,230,229,226,223,220,215,212,211,210,210,210,209,209,207,206,205,206,205,206,206,207,208,210,211,212,215,217,219,223,228,233,239,244,0,5,10,7,12,254,0,0,0,76,76,74,68,64,61,59,55,53,48,45,40,39,37,36,35,36,35,34,35,34,32,32,32,33,35,41,49,62,71,78,81,83,79,74,0,0,0,0,0,161,0,161,166,0,177,166,0,0,169,0,0,0,0,0,121,123,121,138,0,0,0,144,143,139,143,158,166,187,190,0,0,0,0,0,0,0,0,0,0,0,0,0,0,0,0,0,0,0,0,0,0,0,0,0,0,0,0,0,0,0,174,134,130,127,127,126,139,0,0,0,0,0,0,0,0,0,123,120,121,124,125,109,100,96.00001,94,94,102,122,119,116,105,96.00001,99.00001,99.00001,103,113,111,90,93,97.00001,98.00001,94,107,103,99.00001,96.00001,94,87,90,84,74,77,70,67,65,68,63,64,64,68,73,77,80,82,87,82,77,72,76,61,60,72,65,60,59,60,54,53,45,43,50,0,0,0,53,42,47,39,28,34,44,0,0,0,0,0,55,54,55,0,0,0,37,32,29,27,34,33,36,37,38,25,16,8,249,251,5,0,12,9,253,247,251,237,238,239,0,0,0,243,244,246,236,231,0,0,0,0,0,242,229,220,213,208,202,197,192,187,181,183,178,181,177,182,190,200,202,209,203,200,190,193,189,178,169,171,167,0,0,0,0,0,0,0,0,0,0,0,0,0,0,0,0,0,0,0,0,0,0,0,0,0,0,0,0,0,0,0,0,0,0,0,0,0,0,0,0,0,0,0,0,0,0,0,0,0,0,0,0,0,0,0,0,0,0,0,0,0,0,0,0,0,0,0,0,0,0,0,0,0,0,0,0,0,0,0,0,0,0,0,0,0,0,0
0,0,0,0,0,0,0,0,0,0,0,0,0,0,0,0,0,0,0,0,0,0,0,0,0,0,0,0,0,0,0,0,0,0,0,0,0,0,0,0,0,0,0,0,0,0,0,0,0,0,0,0,0,0,0,0,0,0,0,0,0,0,0,0,0,0,0,0,0,0,0,0,0,0,0,0,0,0,0,0,0,0,0,0,0,0,0,0,0,0,0,0,0,0,0,0,0,0,0,0,0,0,0,0,10,3,11,3,9,6,0,0,0,0,23,34,31,35,49,38,46,41,44,40,33,0,0,0,0,0,0,0,0,0,0,0,0,0,83,0,90,83,0,0,0,0,0,86,91,94,96.00001,0,0,103,108,105,109,108,0,0,0,0,0,0,107,0,109,113,120,124,0,0,0,0,0,0,0,0,0,0,0,0,0,0,0,0,0,0,126,127,127,125,129,135,138,137,130,121,118,108,110,121,130,132,145,134,131,137,127,119,130,126,120,134,0,0,128,129,133,132,125,124,115,0,0,142,139,137,121,119,119,124,128,136,0,0,0,0,0,0,0,229,229,230,228,225,222,217,213,210,210,209,210,209,208,207,206,205,205,207,207,208,207,208,209,209,209,211,214,217,220,225,230,234,240,246,253,2,8,5,10,6,0,0,68,76,74,72,68,63,59,57,54,50,47,44,39,39,38,36,36,37,35,35,35,34,32,32,32,33,36,40,47,57,68,76,79,83,80,75,0,0,0,0,180,183,0,0,0,0,189,191,0,0,190,0,0,0,0,0,140,138,135,150,151,160,156,157,153,159,164,180,190,209,206,0,0,0,0,0,0,0,0,0,0,0,0,0,0,0,0,0,0,0,0,0,0,0,0,0,0,0,0,0,0,0,0,132,129,127,127,128,140,182,0,0,0,0,0,0,0,128,140,137,133,135,128,114,109,105,104,112,123,146,144,0,0,0,112,0,120,132,139,133,135,135,129,130,131,129,132,130,119,116,0,102,0,92,83,81,76,81,76,83,78,78,89,94,91,95,105,97.00001,89,85,88,76,78,91,85,78,78,74,69,75,71,67,73,0,0,0,77,69,64,56,45,46,60,72,0,0,0,0,0,0,80,77,0,60,61,49,51,48,56,51,53,48,56,42,36,33,26,0,0,0,20,18,14,8,12,1,251,248,0,0,0,0,18,14,9,7,8,13,6,4,11,253,247,235,237,223,220,208,207,198,194,195,195,190,191,196,201,207,217,219,215,211,212,216,217,210,208,202,0,0,0,0,0,0,0,0,0,0,0,0,0,0,0,0,0,0,0,0,0,0,0,0,0,0,0,0,0,0,0,0,0,0,0,0,0,0,0,0,0,0,0,0,0,0,0,0,0,0,0,0,0,0,0,0,0,0,0,0,0,0,0,0,0,0,0,0,0,0,0,0,0,0,0,0,0,0,0,0,0,0,0,0,0,0,0,0
0,0,0,0,0,0,0,0,0,0,0,0,0,0,0,0,0,0,0,0,0,0,0,0,0,0,0,0,0,0,0,0,0,0,0,0,0,0,0,0,0,0,0,0,0,0,0,0,0,0,0,0,0,0,0,0,0,0,0,0,0,0,0,0,0,0,0,0,0,0,0,0,0,0,0,0,0,0,0,0,0,0,0,0,0,0,0,0,0,0,0,0,0,0,0,0,0,0,0,0,0,0,0,0,0,17,21,20,30,30,35,0,40,0,48,61,59,61,65,57,66,58,65,62,0,0,0,0,0,0,0,0,0,0,0,72,0,0,0,0,0,96.00001,0,0,95,0,99.00001,97.00001,99.00001,0,0,0,112,114,127,128,143,0,0,0,0,0,0,0,0,0,120,121,129,135,0,0,0,0,0,0,0,130,137,0,0,0,0,0,0,0,137,0,143,142,145,144,143,148,150,149,145,138,137,125,129,131,140,140,161,149,151,156,154,138,147,148,142,0,158,0,148,151,151,151,154,156,151,0,163,164,166,0,145,143,147,150,154,160,0,0,0,0,0,0,226,228,228,229,229,225,221,216,211,208,209,208,209,208,206,205,203,203,202,203,205,207,207,209,209,210,210,210,213,216,220,225,232,236,241,246,253,2,8,6,13,13,0,0,70,76,74,72,66,61,57,55,53,50,47,44,40,40,39,38,37,37,36,36,35,34,34,33,33,34,38,40,45,55,64,76,80,84,82,78,0,0,0,199,189,188,0,186,0,0,206,214,0,210,205,0,0,0,0,0,173,168,161,175,178,179,179,180,178,182,186,196,205,218,215,0,229,244,241,0,0,0,0,0,0,0,4,1,249,0,0,0,0,0,0,0,0,0,0,0,0,0,0,0,0,0,0,132,127,127,126,128,139,0,0,0,0,0,0,0,0,151,155,153,144,142,131,119,116,122,123,135,145,162,153,0,0,0,128,0,126,140,150,0,156,166,149,152,148,154,153,160,145,0,0,0,0,102,101,96.00001,88,97.00001,92,94,86,86,93,100,100,106,116,109,101,102,108,105,108,115,111,107,105,105,100,98.00001,85,82,79,77,79,95,94,91,77,70,58,56,69,0,0,0,0,0,0,0,0,87,85,80,84,74,75,70,80,80,76,71,75,54,49,54,45,40,0,0,41,44,42,31,29,24,18,0,0,0,0,0,35,21,27,23,28,28,34,23,31,25,0,2,10,243,239,221,225,216,208,207,202,198,195,198,199,207,216,218,227,223,222,224,224,213,216,209,0,0,0,0,0,0,0,0,0,0,0,0,0,0,0,0,0,0,0,0,0,0,0,0,0,0,0,0,0,0,0,0,0,0,0,0,0,0,0,0,0,0,0,0,0,0,0,0,0,0,0,0,0,0,0,0,0,0,0,0,0,0,0,0,0,0,0,0,0,0,0,0,0,0,0,0,0,0,0,0,0,0,0,0,0,0,0,0
0,0,0,0,0,0,0,0,0,0,0,0,0,0,0,0,0,0,0,0,0,0,0,0,0,0,0,0,0,0,0,0,0,0,0,0,0,0,0,0,0,0,0,0,0,0,0,0,0,0,0,0,0,0,0,0,0,0,0,0,0,0,0,0,0,0,0,0,0,0,0,0,0,0,0,0,0,0,0,0,0,0,0,0,0,0,0,0,0,0,0,0,0,0,0,0,0,0,0,0,0,0,0,0,0,42,0,0,42,40,0,0,0,0,68,79,76,81,78,70,0,73,0,0,0,0,0,0,0,0,0,0,0,89,0,92,0,0,0,0,0,0,0,0,105,110,108,112,0,0,0,0,0,131,141,0,0,0,0,0,0,0,0,0,0,0,0,0,0,160,0,156,0,0,0,0,0,156,161,0,160,0,0,0,0,153,156,164,158,158,156,161,154,157,159,160,150,155,157,150,151,160,165,0,184,0,0,167,168,151,154,155,143,149,0,0,0,0,154,159,166,0,164,0,0,188,185,0,173,170,168,169,166,175,0,0,0,0,0,0,228,229,228,228,226,222,218,212,209,207,208,208,208,208,206,203,202,202,202,203,205,206,207,209,209,209,210,210,212,219,223,227,233,237,241,245,254,2,5,7,18,20,0,65,73,76,75,72,66,60,57,53,49,46,46,43,42,42,41,40,39,38,37,37,35,35,34,34,33,34,37,39,43,51,62,73,81,85,84,80,63,0,0,215,211,206,0,0,0,0,217,0,227,223,216,0,0,0,0,213,212,200,191,199,195,194,195,198,197,202,203,210,215,222,227,244,0,9,16,22,19,17,0,26,28,22,0,15,8,0,0,0,0,0,0,0,0,0,0,0,0,0,0,0,0,0,0,131,129,127,126,125,137,0,0,0,0,160,161,173,0,0,180,178,174,171,162,149,139,140,0,151,160,0,168,0,0,0,131,0,131,141,153,170,0,183,169,0,0,0,0,172,160,148,138,0,125,0,124,123,116,119,122,126,107,93,102,109,108,119,129,123,115,110,111,111,111,116,116,111,119,119,111,108,104,93,86,94,95,103,103,101,85,80,73,71,85,0,0,0,0,0,0,0,0,0,94,93,100,90,96.00001,85,93,93,90,82,95,76,0,87,81,68,78,0,63,61,54,48,44,41,39,49,59,64,66,69,66,51,56,49,46,42,43,35,40,36,36,16,18,255,249,236,249,243,232,229,224,215,208,212,211,211,215,218,228,231,241,245,239,227,226,0,0,0,0,0,0,0,0,0,0,0,0,0,0,0,0,0,0,0,0,0,0,0,0,0,0,0,0,0,0,0,0,0,0,0,0,0,0,0,0,0,0,0,0,0,0,0,0,0,0,0,0,0,0,0,0,0,0,0,0,0,0,0,0,0,0,0,0,0,0,0,0,0,0,0,0,0,0,0,0,0,0,0,0,0,0,0,0,0
0,0,0,0,0,0,0,0,0,0,0,0,0,0,0,0,0,0,0,0,0,0,0,0,0,0,0,0,0,0,0,0,0,0,0,0,0,0,0,0,0,0,0,0,0,0,0,0,0,0,0,0,0,0,0,0,0,0,0,0,0,0,0,0,0,0,0,0,0,0,0,0,0,0,0,0,0,0,0,0,0,0,0,0,0,0,0,0,0,0,0,0,0,0,0,0,0,0,0,0,0,0,0,0,57,61,0,0,53,50,0,0,0,73,0,0,89,0,0,0,0,0,0,0,0,0,0,0,0,0,0,0,0,100,105,111,0,0,0,0,0,0,0,125,124,129,133,140,0,0,0,0,0,150,153,157,0,0,0,0,0,0,0,0,148,0,0,0,0,182,188,172,168,0,0,0,0,168,0,0,182,0,0,0,0,177,182,185,173,0,165,180,172,177,176,183,168,173,176,173,167,170,173,0,0,0,181,180,175,159,162,162,149,153,0,0,0,0,0,170,0,0,0,0,0,205,202,0,191,184,177,178,174,183,180,0,0,0,0,0,230,229,229,227,224,220,216,210,208,207,208,208,208,207,205,202,201,201,200,200,202,204,205,208,208,208,208,209,213,217,223,226,232,236,241,245,254,2,8,10,19,27,0,72,74,77,73,69,63,59,55,52,48,46,44,43,42,42,42,41,39,39,37,38,36,36,35,35,33,35,37,39,41,48,60,71,80,85,85,82,72,0,0,238,229,225,216,0,0,0,222,0,232,228,222,0,0,0,0,0,229,229,223,225,219,219,211,220,219,223,218,223,223,230,235,253,12,17,22,27,23,19,25,36,41,39,35,35,21,0,0,0,0,0,0,0,0,0,0,0,0,0,0,0,0,0,0,131,129,126,126,125,133,0,0,0,0,0,0,0,0,0,184,182,183,184,176,173,164,0,0,0,0,186,181,183,177,0,0,0,0,0,0,191,0,196,179,0,0,190,188,196,195,187,0,0,0,138,137,139,136,0,0,0,0,125,137,141,138,143,144,136,128,122,122,125,129,123,125,125,135,132,132,128,122,105,97.00001,106,103,112,114,113,99.00001,97.00001,93,94,0,0,0,0,0,0,0,0,0,0,0,108,113,104,112,102,108,111,114,107,123,99.00001,103,0,0,0,0,0,87,82,80,72,77,69,73,82,91,87,90,87,83,67,63,54,50,45,47,40,40,35,36,22,28,16,14,4,15,0,0,12,12,252,242,239,234,226,224,223,233,238,3,12,12,254,248,0,0,0,0,0,0,0,0,0,0,0,0,0,0,0,0,0,0,0,0,0,0,0,0,0,0,0,0,0,0,0,0,0,0,0,0,0,0,0,0,0,0,0,0,0,0,0,0,0,0,0,0,0,0,0,0,0,0,0,0,0,0,0,0,0,0,0,0,0,0,0,0,0,0,0,0,0,0,0,0,0,0,0,0,0,0,0,0,0
0,0,0,0,0,0,0,0,0,0,0,0,0,0,0,0,0,0,0,0,0,0,0,0,0,0,0,0,0,0,0,0,0,0,0,0,0,0,0,0,0,0,0,0,0,0,0,0,0,0,0,0,0,0,0,0,0,0,0,0,0,0,0,0,0,0,0,0,0,0,0,0,0,0,0,0,0,0,0,0,0,0,0,0,0,0,0,0,0,0,0,0,0,0,0,0,0,0,0,0,0,0,0,61,67,71,0,56,0,0,0,0,0,0,0,0,0,0,0,0,0,104,0,0,0,0,0,0,0,0,0,0,113,0,110,118,0,0,0,0,0,0,0,137,143,147,0,163,0,0,0,0,0,0,166,0,0,0,0,0,0,0,166,160,164,0,0,0,0,206,206,195,198,0,0,0,0,0,0,0,0,0,205,208,206,197,205,204,194,0,0,0,0,0,186,195,186,191,198,199,190,188,183,0,0,204,199,0,194,188,190,190,179,182,0,0,179,0,0,0,0,0,0,0,0,226,223,226,210,196,187,0,191,206,208,202,0,0,0,0,231,229,227,225,222,218,214,211,208,206,206,205,205,204,202,202,201,202,201,202,203,204,204,206,207,207,208,210,213,219,225,228,233,236,241,246,253,5,10,14,23,38,60,74,73,73,70,67,62,59,54,49,46,43,42,42,42,42,43,43,40,39,38,38,36,36,35,35,33,34,37,37,39,45,55,67,76,82,84,81,74,0,0,0,0,241,233,0,0,229,233,237,242,238,237,239,238,243,247,253,245,244,239,239,238,241,241,245,246,245,237,238,242,245,249,13,23,26,32,35,35,31,36,47,55,53,50,51,41,0,0,0,0,0,0,0,0,0,0,0,0,0,0,0,0,0,0,130,130,126,128,124,130,0,0,0,0,0,0,0,0,0,187,187,189,190,182,191,182,0,0,0,0,0,198,195,0,0,0,0,0,0,0,206,208,216,194,195,196,202,202,218,215,0,0,0,0,159,157,155,165,0,0,0,0,0,155,167,165,168,165,153,136,126,128,136,145,147,148,143,150,142,143,148,144,124,117,121,109,115,118,119,105,107,103,0,0,0,0,0,0,0,0,0,0,0,0,123,124,119,126,115,117,121,121,115,128,113,125,0,118,0,122,106,111,110,107,100,104,101,99.00001,108,112,109,106,97.00001,90,76,70,61,61,55,58,47,41,33,28,13,14,10,5,254,7,13,0,0,35,22,14,9,2,245,239,238,244,249,11,19,24,24,0,0,0,0,0,0,0,0,0,0,0,0,0,0,0,0,0,0,0,0,0,0,0,0,0,0,0,0,0,0,0,0,0,0,0,0,0,0,0,0,0,0,0,0,0,0,0,0,0,0,0,0,0,0,0,0,0,0,0,0,0,0,0,0,0,0,0,0,0,0,0,0,0,0,0,0,0,0,0,0,0,0,0,0,0,0,0,0,0,0
0,0,0,0,0,0,0,0,0,0,0,0,0,0,0,0,0,0,0,0,0,0,0,0,0,0,0,0,0,0,0,0,0,0,0,0,0,0,0,0,0,0,0,0,0,0,0,0,0,0,0,0,0,0,0,0,0,0,0,0,0,0,0,0,0,0,0,0,0,0,0,0,0,0,0,0,0,0,0,0,0,0,0,0,0,0,0,0,0,0,0,0,0,0,0,0,0,0,0,0,0,0,66,0,0,0,0,0,0,0,0,0,0,0,0,0,0,0,0,0,0,0,0,0,0,0,0,0,0,0,0,0,0,0,116,130,0,0,0,0,0,0,0,153,0,171,0,188,0,0,0,0,0,0,0,0,0,0,0,0,0,0,190,0,194,0,0,0,0,220,219,212,0,0,0,0,0,216,0,218,226,0,215,225,227,220,232,232,227,226,0,0,222,207,202,210,0,208,0,0,214,0,0,0,0,209,204,0,202,204,205,0,198,0,0,0,192,0,192,0,0,0,0,0,0,0,0,0,0,0,0,0,216,231,219,207,0,0,0,233,231,228,226,225,221,219,214,211,208,206,204,204,204,203,202,201,200,200,199,199,200,201,201,204,204,205,207,209,213,218,224,227,231,235,241,246,0,7,13,21,33,44,66,76,76,72,68,66,60,57,52,50,45,43,42,41,41,42,42,42,40,39,39,39,37,37,37,36,34,35,36,36,38,43,52,65,75,83,86,84,84,0,0,0,0,0,0,249,239,247,249,247,2,1,3,6,0,12,22,21,14,19,21,19,21,25,20,13,10,3,249,250,2,1,11,25,33,34,47,44,50,46,51,53,59,60,62,65,63,0,0,0,0,0,0,0,0,0,0,0,0,0,0,0,0,0,0,131,131,129,128,124,130,0,0,0,0,0,0,0,0,0,197,195,204,207,201,205,0,0,0,0,0,0,0,0,0,0,0,0,0,0,192,209,212,219,206,206,213,223,222,243,244,0,0,0,208,184,186,176,0,0,0,0,0,0,0,0,0,0,197,179,0,0,0,0,0,154,159,149,154,151,152,157,160,146,143,144,126,126,125,123,117,124,0,0,0,0,0,0,0,0,0,0,0,0,0,0,0,145,151,141,144,146,142,135,140,131,139,137,0,140,144,127,132,133,121,114,119,118,117,121,124,120,115,106,104,92,83,72,67,59,60,52,45,43,36,24,21,14,1,247,248,245,253,17,31,23,22,19,12,255,243,245,250,0,12,30,34,42,0,0,0,0,0,0,0,0,0,0,0,0,0,0,0,0,0,0,0,0,0,0,0,0,0,0,0,0,0,0,0,0,0,0,0,0,0,0,0,0,0,0,0,0,0,0,0,0,0,0,0,0,0,0,0,0,0,0,0,0,0,0,0,0,0,0,0,0,0,0,0,0,0,0,0,0,0,0,0,0,0,0,0,0,0,0,0,0,0,0
0,0,0,0,0,0,0,0,0,0,0,0,0,0,0,0,0,0,0,0,0,0,0,0,0,0,0,0,0,0,0,0,0,0,0,0,0,0,0,0,0,0,0,0,0,0,0,0,0,0,0,0,0,0,0,0,0,0,0,0,0,0,0,0,0,0,0,0,0,0,0,0,0,0,0,0,0,0,0,0,0,0,0,0,0,0,0,0,0,0,0,0,0,0,0,0,0,0,0,0,0,0,0,0,0,0,0,0,0,0,0,0,0,0,0,0,0,0,0,0,0,0,0,0,0,0,0,0,0,0,0,0,121,119,134,0,0,0,0,0,0,0,0,157,173,176,190,195,0,0,0,190,0,206,0,0,0,0,0,0,0,209,211,221,224,0,0,0,0,0,0,233,0,225,0,0,0,242,0,246,250,0,238,248,248,241,246,247,239,239,236,0,0,0,0,234,0,0,0,0,0,0,0,0,0,238,235,0,237,0,0,0,0,0,0,0,207,0,0,0,0,0,0,0,0,2,254,0,0,0,0,0,0,0,0,214,0,0,0,234,231,229,226,226,221,219,215,212,208,206,203,203,201,201,201,201,199,200,199,200,201,201,201,202,202,204,206,209,213,217,223,226,230,234,240,245,1,10,15,25,37,52,73,79,77,73,68,66,60,57,52,50,45,42,41,40,40,40,41,40,39,38,38,38,37,37,37,36,35,35,35,36,38,43,51,62,76,82,85,84,88,0,0,0,0,0,32,30,0,6,6,1,13,21,25,35,43,35,38,33,26,27,33,35,42,45,39,31,28,18,8,8,21,17,28,38,47,42,53,48,58,52,55,55,63,60,65,66,70,0,0,0,0,0,0,0,0,0,0,0,0,0,0,0,0,0,0,131,132,130,130,125,129,0,0,0,0,0,0,0,0,0,0,207,218,223,228,235,0,0,0,0,0,0,0,0,0,0,0,0,0,0,221,226,230,227,219,213,224,230,237,254,6,250,0,225,225,205,205,195,0,0,0,0,0,0,0,0,0,0,0,0,0,0,0,0,0,0,0,165,172,161,161,174,179,165,164,161,140,132,135,138,137,148,0,0,0,0,0,0,182,0,0,0,0,0,0,0,0,0,0,151,151,152,151,150,158,160,0,0,0,158,159,146,157,161,155,146,143,141,134,129,128,125,118,111,110,104,91,83,77,70,67,65,55,52,44,36,31,27,11,254,249,240,242,255,15,11,12,13,10,255,247,247,248,250,8,31,40,53,46,39,30,0,0,0,0,0,0,0,0,0,0,0,0,0,0,0,0,0,0,0,0,0,0,0,0,0,0,0,0,0,0,0,0,0,0,0,0,0,0,0,0,0,0,0,0,0,0,0,0,0,0,0,0,0,0,0,0,0,0,0,0,0,0,0,0,0,0,0,0,0,0,0,0,0,0,0,0,0,0,0,0,0,0,0,0,0,0,0
0,0,0,0,0,0,0,0,0,0,0,0,0,0,0,0,0,0,0,0,0,0,0,0,0,0,0,0,0,0,0,0,0,0,0,0,0,0,0,0,0,0,0,0,0,0,0,0,0,0,0,0,0,0,0,0,0,0,0,0,0,0,0,0,0,0,0,0,0,0,0,0,0,0,0,0,0,0,0,0,0,0,0,0,0,0,0,0,0,0,0,0,0,0,0,0,0,0,0,0,0,0,0,0,0,0,0,0,0,98.00001,98.00001,0,0,0,0,0,0,0,0,0,0,0,0,0,0,0,0,0,0,0,0,0,132,126,139,150,160,181,0,0,177,172,166,168,191,190,201,200,207,201,0,207,0,0,217,0,0,0,0,0,0,0,0,228,233,0,0,0,0,0,0,0,0,0,0,0,0,0,0,4,3,5,246,0,7,3,6,4,255,249,248,253,1,251,3,3,4,0,0,0,0,0,0,0,0,245,0,0,253,1,0,0,0,0,0,0,0,0,0,0,0,0,0,0,14,17,22,13,255,0,0,254,0,14,0,236,0,0,0,235,232,230,226,224,220,218,214,211,207,205,202,202,201,202,200,201,199,198,197,198,197,198,198,199,200,201,204,209,212,217,222,224,229,232,240,248,2,10,19,27,38,59,78,80,78,72,67,63,58,55,51,49,44,42,40,38,37,37,38,39,38,39,38,38,37,38,38,38,37,37,37,37,38,42,49,63,76,82,88,89,97.00001,0,0,0,0,0,50,45,27,29,32,32,44,49,0,0,0,0,52,44,40,41,46,48,57,57,60,50,52,42,35,28,38,33,37,35,43,42,48,49,63,61,63,65,68,64,72,73,78,0,0,0,0,0,0,0,0,0,0,0,0,0,0,0,0,0,0,132,134,132,131,126,127,0,0,0,0,0,0,0,0,0,0,0,227,221,225,0,0,0,0,0,0,0,0,0,0,0,0,0,0,246,252,250,247,240,235,229,238,251,3,13,17,9,0,0,245,229,228,0,0,0,0,0,0,0,0,0,0,0,223,0,0,0,0,0,0,0,191,178,181,169,170,181,186,185,182,182,161,0,0,0,0,0,0,0,0,0,0,198,195,0,0,0,0,0,0,0,179,178,174,166,163,165,164,164,171,0,0,0,0,169,163,157,168,174,173,164,160,156,148,140,140,137,132,126,124,116,104,97.00001,92,84,82,79,68,67,62,59,55,49,36,21,11,0,2,7,18,11,7,2,0,245,238,245,253,254,12,40,45,56,57,50,41,41,30,23,27,0,0,0,0,0,0,0,0,0,0,0,0,0,0,0,0,0,0,0,0,0,0,0,0,0,0,0,0,0,0,0,0,0,0,0,0,0,0,0,0,0,0,0,0,0,0,0,0,0,0,0,0,0,0,0,0,0,0,0,0,0,0,0,0,0,0,0,0,0,0,0,0,0,0,0,0,0,0,0,0,0,0,0
0,0,0,0,0,0,0,0,0,0,0,0,0,0,0,0,0,0,0,0,0,0,0,0,0,0,0,0,0,0,0,0,0,0,0,0,0,0,0,0,0,0,0,0,0,0,0,0,0,0,0,0,0,0,0,0,0,0,0,0,0,0,0,0,0,0,0,0,0,0,0,0,0,0,0,0,0,0,0,0,0,0,0,0,0,0,0,0,0,0,0,0,0,0,0,0,0,0,0,0,0,0,0,0,0,0,0,0,0,113,107,0,0,0,0,0,0,0,0,0,0,0,0,0,0,0,0,0,0,0,0,0,152,151,159,167,171,187,0,0,0,0,182,186,0,203,0,0,0,218,0,220,0,228,230,243,0,251,0,0,0,0,0,252,0,0,0,0,0,0,0,0,0,0,0,0,0,0,24,19,15,16,9,11,0,20,19,12,10,6,5,3,9,0,0,12,0,0,0,0,0,0,0,0,0,8,9,0,0,26,0,0,0,0,0,18,0,16,24,0,0,0,0,0,36,39,41,38,26,12,0,12,9,22,0,0,0,0,0,234,232,230,227,225,221,219,214,212,208,204,200,201,200,201,200,201,198,198,197,197,197,197,197,198,199,201,205,208,211,214,220,224,227,234,242,249,2,11,18,26,0,63,80,81,80,72,67,62,58,54,51,48,45,42,40,38,36,36,37,37,37,37,35,36,36,37,37,38,37,37,37,37,38,42,48,59,73,81,87,88,94,0,0,0,0,0,77,63,53,52,54,48,68,73,0,82,83,73,72,68,66,67,70,68,70,71,78,62,67,59,53,41,57,50,55,54,62,63,67,64,78,76,76,79,80,76,86,85,90,98.00001,0,0,0,0,0,0,78,0,0,0,0,0,0,0,0,0,0,130,133,132,131,127,130,0,0,0,0,0,0,0,0,0,0,0,0,0,0,0,0,0,15,0,0,0,0,0,0,0,0,0,0,2,10,7,8,2,2,252,255,11,22,32,31,0,0,0,0,0,0,0,0,0,0,0,0,0,0,0,0,0,0,0,0,0,0,0,0,0,206,202,202,187,187,199,198,201,202,202,182,181,190,0,0,0,0,0,0,0,0,0,203,0,0,0,194,200,195,0,0,200,0,185,174,183,179,181,186,204,206,204,197,191,178,169,175,180,175,170,166,163,153,147,144,141,137,133,132,128,123,122,118,112,108,101,88,89,80,79,72,62,49,37,24,13,10,11,17,0,3,0,0,0,238,248,4,7,15,43,46,56,56,61,48,58,47,42,41,49,36,44,40,40,38,45,36,0,0,0,0,0,0,0,0,0,0,0,0,0,0,0,0,0,0,0,0,0,0,0,0,0,0,0,0,0,0,0,0,0,0,0,0,0,0,0,0,0,0,0,0,0,0,0,0,0,0,0,0,0,0,0,0,0,0,0,0,0,0,0,0,0,0,0,0,0,0,0,0,0,0,0
0,0,0,0,0,0,0,0,0,0,0,0,0,0,0,0,0,0,0,0,0,0,0,0,0,0,0,0,0,0,0,0,0,0,0,0,0,0,0,0,0,0,0,0,0,0,0,0,0,0,0,0,0,0,0,0,0,0,0,0,0,0,0,0,0,0,0,0,0,0,0,0,0,0,0,0,0,0,0,0,0,0,0,0,0,0,0,0,0,0,0,0,0,0,0,0,0,0,0,0,0,0,0,0,0,0,0,0,0,0,0,0,0,0,0,0,0,0,0,0,0,0,0,0,0,0,0,0,0,0,0,0,171,173,180,181,0,0,0,0,0,0,0,0,0,0,0,0,0,227,0,240,0,0,247,251,0,254,250,0,253,0,0,13,0,0,0,0,0,29,0,0,0,0,0,0,0,0,0,44,39,42,31,31,0,0,40,33,30,17,14,16,32,0,0,0,0,48,48,42,0,0,0,0,0,0,0,0,0,0,0,72,0,0,0,0,0,0,0,0,0,0,0,0,42,0,60,0,60,0,0,42,0,0,0,0,0,0,0,234,232,229,227,224,221,217,212,209,207,204,201,202,201,200,199,199,196,196,195,195,194,195,197,197,199,202,205,209,212,215,220,223,227,235,244,250,3,13,19,27,46,67,82,82,79,72,65,61,58,54,51,49,46,42,39,37,35,34,34,35,35,36,34,36,36,37,38,39,38,39,38,38,39,42,45,58,69,81,87,89,95,0,0,0,0,0,98.00001,96.00001,87,84,83,78,88,97.00001,98.00001,100,97.00001,91,92,98.00001,95,98.00001,98.00001,92,84,82,87,75,78,75,63,51,63,59,65,68,75,77,81,80,91,89,87,88,81,81,91,94,96.00001,111,112,0,104,0,0,0,94,0,104,115,0,0,0,0,0,0,128,130,133,134,133,128,130,0,0,0,0,0,0,0,0,0,20,0,0,0,0,0,0,0,0,0,0,0,0,0,0,0,0,0,0,14,17,15,12,8,10,14,12,21,27,34,33,0,0,0,0,0,0,0,0,0,0,0,0,0,0,0,0,0,0,0,0,0,0,0,0,0,214,0,217,0,0,0,0,212,215,224,205,0,0,0,0,0,0,0,237,0,231,226,222,225,0,213,218,223,221,0,0,226,0,0,189,195,188,189,191,213,216,219,212,205,191,180,182,186,182,175,174,170,164,157,156,151,148,143,143,141,138,138,136,135,129,127,120,120,111,112,101,89,74,59,41,26,17,14,18,0,0,0,0,0,232,254,17,18,33,55,53,55,56,60,48,57,49,46,48,51,43,49,48,41,41,47,43,0,0,0,0,0,0,0,0,0,0,0,0,0,0,0,0,0,0,0,0,0,0,0,0,0,0,0,0,0,0,0,0,0,0,0,0,0,0,0,0,0,0,0,0,0,0,0,0,0,0,0,0,0,0,0,0,0,0,0,0,0,0,0,0,0,0,0,0,0,0,0,0,0,0,0
0,0,0,0,0,0,0,0,0,0,0,0,0,0,0,0,0,0,0,0,0,0,0,0,0,0,0,0,0,0,0,0,0,0,0,0,0,0,0,0,0,0,0,0,0,0,0,0,0,0,0,0,0,0,0,0,0,0,0,0,0,0,0,0,0,0,0,0,0,0,0,0,0,0,0,0,0,0,0,0,0,0,0,0,0,0,0,0,0,0,0,0,0,0,0,0,0,0,0,0,0,0,0,0,0,0,0,0,0,0,0,0,0,0,0,0,0,0,0,0,0,0,0,0,0,0,0,0,0,0,0,191,185,196,199,198,208,222,0,0,0,0,0,0,0,0,0,243,248,241,249,3,0,0,0,0,0,4,8,0,10,12,0,18,19,0,0,0,0,0,0,0,0,0,0,0,0,0,0,63,57,65,54,0,0,0,49,42,37,30,29,38,53,0,72,0,86,0,83,74,77,0,0,0,0,35,34,50,0,0,0,100,0,85,0,58,0,0,0,0,0,0,0,0,54,62,73,0,85,0,0,0,0,56,0,0,0,0,240,236,233,230,227,223,218,215,211,208,205,203,201,200,199,199,197,197,195,194,195,194,194,195,197,198,200,202,207,208,210,214,218,222,229,238,245,252,3,8,16,26,48,73,87,84,81,70,63,59,56,53,50,48,45,41,38,36,35,35,34,35,35,36,34,36,37,38,38,40,38,39,39,40,40,43,44,52,64,77,81,88,91,0,0,0,0,0,118,123,118,111,100,98.00001,91,97.00001,96.00001,114,109,119,113,121,112,109,107,101,92,90,93,82,87,87,81,75,82,80,81,84,89,90,90,91,100,99.00001,101,104,96.00001,93,97.00001,98.00001,99.00001,114,119,117,121,0,124,119,115,0,115,126,0,145,0,157,0,0,115,127,132,132,132,128,129,0,0,0,0,0,0,56,54,58,49,0,0,0,0,54,65,0,0,0,0,0,0,0,0,0,0,0,34,0,33,33,36,30,29,0,0,0,28,34,39,0,0,0,0,0,0,0,0,0,0,0,0,0,0,0,0,0,0,0,0,0,0,0,0,0,242,249,249,0,0,0,0,0,0,0,0,0,0,0,0,22,14,3,255,0,1,1,3,0,246,244,246,244,244,253,247,247,239,229,206,210,201,201,206,224,0,243,231,225,207,194,191,189,183,180,179,177,176,176,175,168,167,162,158,156,153,151,151,148,144,140,135,132,124,125,120,110,97.00001,89,69,56,40,29,0,0,0,0,0,0,0,0,0,0,0,0,0,58,60,58,57,64,61,54,56,53,51,55,57,50,57,61,63,0,54,57,0,0,68,0,0,0,0,0,0,0,0,0,0,0,0,0,0,0,0,0,0,0,0,0,0,0,0,0,0,0,0,0,0,0,0,0,0,0,0,0,0,0,0,0,0,0,0,0,0,0,0,0,0,0,0,0,0,0,0,0,0,0,0,0,0,0,0,0,0,0,0,0
0,0,0,0,0,0,0,0,0,0,0,0,0,0,0,0,0,0,0,0,0,0,0,0,0,0,0,0,0,0,0,0,0,0,0,0,0,0,0,0,0,0,0,0,0,0,0,0,0,0,0,0,0,0,0,0,0,0,0,0,0,0,0,0,0,0,0,0,0,0,0,0,0,0,0,0,0,0,0,0,0,0,0,0,0,0,0,0,0,0,0,0,0,0,0,0,0,0,0,0,0,0,0,0,0,0,0,0,0,0,0,0,0,0,0,0,0,0,0,0,0,0,0,0,0,0,0,0,0,0,0,210,203,220,217,216,0,242,241,0,0,0,0,0,0,0,0,0,0,11,0,26,22,0,0,0,0,0,0,0,0,0,0,0,29,0,42,34,42,47,0,0,0,0,0,68,71,0,0,0,0,0,73,0,0,0,0,0,0,0,0,0,79,0,88,88,104,102,105,104,103,0,58,0,0,0,0,0,0,0,0,106,0,0,0,0,0,0,0,0,0,0,0,0,71,80,94,114,109,0,0,0,67,0,60,0,0,0,239,235,231,229,224,221,217,213,210,207,205,203,201,200,199,198,197,195,193,193,193,193,194,196,197,197,199,202,204,207,210,214,218,225,231,240,247,253,4,9,15,27,48,0,84,82,75,67,60,55,55,53,49,47,43,39,37,35,34,35,35,35,34,36,35,36,36,38,36,38,37,38,39,39,39,41,42,48,58,72,78,84,87,0,0,0,146,141,140,142,144,135,129,124,115,113,110,119,118,130,127,133,129,127,124,116,106,101,105,95,101,103,99.00001,95,92,94,96.00001,98.00001,102,106,104,107,113,114,121,123,112,113,114,115,112,133,139,141,141,151,139,134,121,120,128,136,0,163,177,0,0,0,110,128,132,132,131,129,125,0,0,0,0,0,82,70,63,62,0,0,0,0,0,0,0,0,0,0,0,0,0,0,0,0,0,0,0,0,0,0,0,0,0,48,0,32,35,37,39,0,0,0,0,0,0,0,0,0,0,0,0,0,0,0,0,0,0,0,0,0,0,0,0,0,246,2,250,228,0,0,0,0,0,0,0,0,0,0,57,51,43,26,22,0,19,18,20,12,8,6,8,15,15,21,15,17,4,255,230,225,214,213,210,227,243,247,235,231,215,201,194,193,185,184,187,192,195,203,207,195,190,185,178,170,169,165,162,156,154,147,141,140,134,136,132,126,113,112,95,88,81,0,0,0,0,0,0,0,0,0,0,0,0,0,0,0,0,0,0,75,76,69,68,66,58,54,60,53,62,72,82,74,69,78,81,79,75,0,0,0,0,0,0,0,0,0,0,0,0,0,0,0,0,0,0,0,0,0,0,0,0,0,0,0,0,0,0,0,0,0,0,0,0,0,0,0,0,0,0,0,0,0,0,0,0,0,0,0,0,0,0,0,0,0,0,0,0,0,0,0,0,0,0,0,0,0
0,0,0,0,0,0,0,0,0,0,0,0,0,0,0,0,0,0,0,0,0,0,0,0,0,0,0,0,0,0,0,0,0,0,0,0,0,0,0,0,0,0,0,0,0,0,0,0,0,0,0,0,0,0,0,0,0,0,0,0,0,0,0,0,0,0,0,0,0,0,0,0,0,0,0,0,0,0,0,0,0,0,0,0,0,0,0,0,0,0,0,0,0,0,0,0,0,0,0,0,0,0,0,0,0,0,0,0,0,0,0,0,0,0,0,0,0,0,0,0,0,0,0,0,0,0,0,0,0,0,0,0,219,241,247,0,0,0,253,250,0,0,0,0,0,0,0,0,0,32,0,0,0,0,0,0,0,0,0,0,0,0,0,0,54,60,63,51,51,52,0,57,0,0,78,81,86,90,88,89,86,0,89,99.00001,103,0,0,0,0,0,0,0,102,0,0,0,0,0,0,0,0,0,0,0,0,0,0,0,0,0,0,0,0,0,0,0,0,0,0,0,0,0,0,0,91,101,115,136,134,0,0,97.00001,78,67,71,0,0,0,241,235,231,229,223,219,216,213,208,205,203,201,199,198,197,195,195,194,193,193,194,194,195,196,198,198,200,202,204,206,210,213,218,225,232,241,247,252,1,9,14,29,56,74,85,80,74,65,59,53,53,50,47,44,42,37,36,36,35,36,36,35,34,36,35,36,37,38,36,36,35,37,38,39,40,42,42,45,54,68,73,80,82,0,0,0,0,0,0,0,141,146,141,134,125,130,124,131,136,143,138,143,138,134,135,131,124,124,123,117,121,119,117,120,116,117,123,128,129,134,130,131,133,133,138,138,131,132,129,124,123,137,142,150,151,160,150,144,135,129,146,0,0,172,187,0,0,0,0,127,131,132,131,130,127,0,0,0,0,0,110,95,90,0,0,0,0,0,100,106,107,104,0,0,0,0,0,0,0,0,0,0,0,0,65,63,73,0,50,47,35,28,32,39,45,43,0,0,0,0,0,0,0,0,0,0,0,0,0,0,71,0,0,0,0,0,0,0,0,0,242,2,248,236,0,0,0,0,0,0,0,0,63,67,69,61,58,45,41,35,32,30,33,34,32,32,30,32,28,29,26,26,19,15,253,242,234,228,224,239,254,255,243,236,222,213,204,204,199,203,210,221,228,235,236,220,212,205,198,188,189,182,179,174,170,162,159,158,149,152,150,144,129,134,117,0,0,0,0,0,0,0,0,0,0,0,0,0,0,0,0,0,0,0,0,0,0,84,86,0,69,0,0,0,0,0,105,102,98.00001,101,101,92,81,0,0,0,0,0,0,0,0,0,0,0,0,0,0,0,0,0,0,0,0,0,0,0,0,0,0,0,0,0,0,0,0,0,0,0,0,0,0,0,0,0,0,0,0,0,0,0,0,0,0,0,0,0,0,0,0,0,0,0,0,0,0,0,0,0,0,0,0,0
0,0,0,0,0,0,0,0,0,0,0,0,0,0,0,0,0,0,0,0,0,0,0,0,0,0,0,0,0,0,0,0,0,0,0,0,0,0,0,0,0,0,0,0,0,0,0,0,0,0,0,0,0,0,0,0,0,0,0,0,0,0,0,0,0,0,0,0,0,0,0,0,0,0,0,0,0,0,0,0,0,0,0,0,0,0,0,0,0,0,0,0,0,0,0,0,0,0,0,0,0,0,0,0,0,0,0,0,0,0,0,0,0,0,0,0,0,0,0,0,0,0,0,0,0,0,0,0,0,0,0,0,0,0,0,0,0,0,13,0,27,35,0,0,0,0,0,54,58,56,53,0,0,0,0,0,0,0,0,0,0,0,0,0,0,0,0,65,69,72,73,74,81,92,90,99.00001,99.00001,106,100,103,98.00001,103,101,0,0,0,113,116,113,114,0,0,0,0,123,134,140,131,136,0,0,0,0,0,0,0,0,0,0,0,0,0,0,0,0,114,0,0,0,0,0,0,0,0,109,117,130,139,137,0,118,106,87,0,0,0,0,248,240,236,230,227,222,218,214,210,207,203,201,199,198,197,196,194,193,192,191,191,192,194,195,197,199,199,199,201,205,207,211,216,220,226,231,238,244,251,1,10,18,37,66,81,86,79,73,66,59,53,51,48,46,42,40,36,36,35,35,35,35,34,33,35,35,37,37,37,36,36,34,36,37,37,38,41,42,45,54,65,72,81,84,0,0,0,0,0,152,159,159,168,165,164,154,158,144,148,147,145,142,148,145,144,153,154,144,146,146,142,142,145,140,138,132,127,129,133,135,135,137,140,141,137,146,147,139,137,140,136,136,150,160,168,172,176,175,167,159,150,0,0,0,214,0,206,0,0,0,131,133,135,133,132,126,0,0,173,156,148,131,120,122,114,112,0,0,0,109,122,122,116,0,0,0,0,0,0,0,0,0,0,0,0,89,78,82,72,54,54,37,30,32,36,33,39,0,0,0,0,0,0,0,0,0,0,0,0,0,0,0,0,0,0,0,0,0,0,0,0,0,0,0,0,0,0,0,0,0,0,0,86,84,79,81,65,66,60,61,54,57,54,61,63,56,52,48,44,40,39,36,36,28,24,13,1,247,239,229,232,242,250,242,241,234,227,217,216,214,216,227,244,255,4,4,246,237,231,223,214,213,205,202,198,192,186,181,176,170,169,168,168,160,0,0,0,0,0,0,0,0,0,0,0,0,0,0,0,0,0,119,0,0,0,0,0,0,0,93,0,0,0,0,0,0,0,147,0,125,0,123,108,92,108,106,0,0,0,0,0,0,0,0,0,0,0,0,0,0,0,0,0,0,0,0,0,0,0,0,0,0,0,0,0,0,0,0,0,0,0,0,0,0,0,0,0,0,0,0,0,0,0,0,0,0,0,0,0,0,0,0,0,0,0,0,0,0,0,0,0,0,0
0,0,0,0,0,0,0,0,0,0,0,0,0,0,0,0,0,0,0,0,0,0,0,0,0,0,0,0,0,0,0,0,0,0,0,0,0,0,0,0,0,0,0,0,0,0,0,0,0,0,0,0,0,0,0,0,0,0,0,0,0,0,0,0,0,0,0,0,0,0,0,0,0,0,0,0,0,0,0,0,0,0,0,0,0,0,0,0,0,0,0,0,0,0,0,0,0,0,0,0,0,0,0,0,0,0,0,0,0,0,0,0,0,0,0,0,0,0,0,0,0,0,0,0,0,0,0,0,0,0,0,0,0,0,0,0,0,0,0,0,0,0,0,0,0,0,0,0,73,71,76,78,75,0,0,0,0,0,0,0,0,0,0,0,0,0,0,78,79,87,99.00001,103,103,115,114,0,113,122,110,113,111,0,117,0,0,0,129,135,138,143,0,134,144,144,148,152,156,139,0,0,0,0,0,0,0,0,0,0,0,0,0,0,0,0,0,143,148,0,0,0,0,0,153,0,130,132,144,144,140,0,0,0,0,0,0,0,0,246,238,234,229,225,219,215,211,209,206,203,201,198,197,196,195,194,193,191,191,192,193,194,195,197,197,196,198,200,203,206,211,214,218,224,230,235,241,249,0,7,17,39,69,82,86,78,74,68,61,53,50,46,43,40,39,36,36,36,37,36,36,35,33,35,35,35,36,37,36,35,34,36,36,38,39,42,42,45,52,64,74,83,87,92,0,0,149,161,168,172,172,184,179,175,166,162,153,152,154,151,147,149,144,147,161,168,161,165,164,158,151,150,149,145,140,135,136,132,133,132,134,137,142,143,155,162,158,157,153,149,0,162,172,186,187,188,187,182,172,172,192,206,218,224,228,223,243,0,0,134,135,136,135,133,125,0,0,189,173,159,142,130,137,130,144,0,0,127,122,120,116,119,0,0,0,0,0,0,0,0,0,0,0,0,113,105,96.00001,91,72,62,46,36,31,28,24,26,43,0,0,0,0,0,0,0,0,0,0,0,0,0,0,0,0,0,0,0,0,0,0,0,0,0,0,0,0,0,0,0,0,95,115,108,103,98.00001,97.00001,84,82,82,84,76,75,75,74,72,66,64,57,53,51,50,48,49,42,36,29,16,255,252,247,247,253,3,250,249,246,240,232,231,230,230,243,2,13,14,16,2,249,244,244,237,242,246,243,232,227,218,210,207,198,192,193,0,0,0,0,0,0,0,0,0,0,0,0,0,0,0,0,0,0,0,137,0,0,0,0,0,0,0,0,0,0,0,0,0,0,0,155,0,133,126,127,0,0,0,113,0,0,0,0,0,0,0,0,0,0,0,0,0,0,0,0,0,0,0,0,0,0,0,0,0,0,0,0,0,0,0,0,0,0,0,0,0,0,0,0,0,0,0,0,0,0,0,0,0,0,0,0,0,0,0,0,0,0,0,0,0,0,0,0,0,0,0
0,0,0,0,0,0,0,0,0,0,0,0,0,0,0,0,0,0,0,0,0,0,0,0,0,0,0,0,0,0,0,0,0,0,0,0,0,0,0,0,0,0,0,0,0,0,0,0,0,0,0,0,0,0,0,0,0,0,0,0,0,0,0,0,0,0,0,0,0,0,0,0,0,0,0,0,0,0,0,0,0,0,0,0,0,0,0,0,0,0,0,0,0,0,0,0,0,0,0,0,0,0,0,0,0,0,0,0,0,0,0,0,0,0,0,0,0,0,0,0,0,0,0,0,0,0,0,0,0,0,0,0,0,0,0,0,0,0,0,0,0,0,0,0,0,0,0,0,88,84,83,85,0,0,0,0,0,0,0,0,0,0,0,0,0,0,0,0,0,0,122,123,0,131,128,0,126,128,118,126,127,0,135,0,141,144,148,154,151,160,0,0,0,164,0,0,0,152,0,0,0,0,0,0,0,0,0,0,0,0,0,0,0,0,154,0,0,0,0,0,0,0,172,0,159,155,161,157,150,0,0,0,0,0,0,0,0,238,235,229,227,224,220,214,212,208,205,202,200,197,197,195,195,194,194,192,192,191,193,194,195,196,197,196,197,199,202,206,212,216,219,225,229,235,242,249,1,12,23,43,70,80,83,77,71,67,61,54,49,45,42,40,39,37,37,37,36,37,37,34,33,34,34,34,35,35,34,34,33,34,34,36,36,40,40,44,50,63,73,79,87,90,0,0,0,177,182,188,180,195,192,191,184,185,172,167,166,157,152,156,147,151,167,174,169,173,173,170,163,160,154,149,140,135,135,135,137,140,139,144,148,149,156,163,159,161,161,164,165,0,180,0,0,195,203,203,194,197,212,221,232,248,255,7,0,0,0,137,138,138,138,134,126,0,223,191,175,163,146,144,150,150,161,166,164,158,153,148,147,147,0,0,0,0,0,0,0,0,0,0,0,0,0,0,87,82,69,62,45,34,27,23,23,33,46,55,0,0,0,0,0,0,0,0,0,0,0,0,0,0,0,0,0,0,0,0,0,0,0,0,0,0,0,0,0,0,0,116,127,121,114,108,107,96.00001,94,91,92,82,79,73,74,73,68,69,65,61,59,58,54,53,47,39,36,23,7,1,251,246,252,4,2,1,4,250,244,243,248,244,5,17,23,18,20,8,3,0,6,5,12,21,0,0,0,0,0,0,235,0,0,0,0,0,0,0,13,9,4,247,252,242,0,0,0,0,0,0,0,152,151,147,146,0,0,0,0,0,0,0,0,0,0,0,156,0,151,151,142,134,135,0,0,0,0,0,0,0,0,0,0,0,0,0,0,0,0,0,0,0,0,0,0,0,0,0,0,0,0,0,0,0,0,0,0,0,0,0,0,0,0,0,0,0,0,0,0,0,0,0,0,0,0,0,0,0,0,0,0,0,0,0,0,0,0,0,0,0,0,0,0,0
0,0,0,0,0,0,0,0,0,0,0,0,0,0,0,0,0,0,0,0,0,0,0,0,0,0,0,0,0,0,0,0,0,0,0,0,0,0,0,0,0,0,0,0,0,0,0,0,0,0,0,0,0,0,0,0,0,0,0,0,0,0,0,0,0,0,0,0,0,0,0,0,0,0,0,0,0,0,0,0,0,0,0,0,0,0,0,0,0,0,0,0,0,0,0,0,0,0,0,0,0,0,0,0,0,0,0,0,0,0,0,0,0,0,0,0,0,0,0,0,0,0,0,0,0,0,0,0,0,0,0,0,0,0,0,0,0,0,42,0,0,75,0,0,108,110,0,0,105,0,101,103,0,0,0,0,0,0,0,0,112,0,116,0,0,0,0,0,0,0,135,135,0,0,143,0,144,146,130,140,138,146,148,0,0,0,0,0,0,0,187,0,0,170,0,0,0,0,0,0,0,0,0,0,0,0,0,0,0,0,0,0,0,0,173,0,0,0,0,0,182,181,188,185,185,186,195,0,0,0,0,0,0,0,0,0,0,235,234,229,225,222,219,213,210,205,204,200,198,196,196,194,194,193,193,191,191,191,192,193,195,195,195,195,197,199,203,207,212,215,219,223,228,233,241,249,3,13,27,45,71,83,82,78,73,68,62,55,50,45,42,40,40,38,38,37,36,36,36,34,33,33,34,35,36,35,35,35,33,34,34,35,36,39,38,43,48,60,73,82,90,95,0,0,0,196,199,205,195,204,198,204,201,204,192,189,183,175,173,180,170,175,186,188,179,182,178,173,165,164,157,150,144,138,135,136,135,135,138,142,147,151,156,163,164,164,171,173,175,0,0,0,0,209,221,216,219,227,233,238,247,0,9,15,27,0,0,136,139,140,139,136,0,0,241,206,189,176,164,162,170,172,185,0,192,0,176,163,172,164,0,0,0,0,0,0,0,0,0,0,0,0,0,0,87,74,66,55,42,38,34,31,31,37,42,50,67,0,0,0,0,0,0,0,0,0,0,0,0,0,0,0,0,0,0,0,0,0,0,0,0,0,0,0,0,144,131,131,133,128,124,118,114,108,105,102,104,95,91,84,84,83,81,81,78,73,70,67,61,59,55,46,44,33,17,9,6,0,4,14,13,13,14,1,254,254,6,5,26,34,38,27,29,19,17,19,32,0,36,45,0,0,0,0,0,0,19,21,18,25,25,0,30,16,7,3,1,251,6,3,254,255,248,0,0,0,0,0,178,171,163,165,159,0,0,0,0,0,0,0,0,0,0,0,147,0,0,0,0,0,0,0,0,0,0,0,0,0,0,0,0,0,0,0,0,0,0,0,0,0,0,0,0,0,0,0,0,0,0,0,0,0,0,0,0,0,0,0,0,0,0,0,0,0,0,0,0,0,0,0,0,0,0,0,0,0,0,0,0,0,0,0,0,0,0,0,0,0,0,0
0,0,0,0,0,0,0,0,0,0,0,0,0,0,0,0,0,0,0,0,0,0,0,0,0,0,0,0,0,0,0,0,0,0,0,0,0,0,0,0,0,0,0,0,0,0,0,0,0,0,0,0,0,0,0,0,0,0,0,0,0,0,0,0,0,0,0,0,0,0,0,0,0,0,0,0,0,0,0,0,0,0,0,0,0,0,0,0,0,0,0,0,0,0,0,0,0,0,0,0,0,0,0,0,0,0,0,0,0,0,0,0,0,0,0,0,0,0,0,0,0,0,0,0,0,0,0,0,0,0,0,0,0,0,0,0,0,0,0,0,0,0,0,0,119,0,114,0,112,0,120,117,0,0,0,0,113,124,131,138,131,0,129,0,0,0,0,0,155,150,156,164,166,163,160,159,161,165,166,170,168,0,0,0,0,0,0,194,0,0,0,0,0,0,201,206,198,196,0,0,0,0,0,0,0,0,0,0,0,0,0,0,0,0,206,0,0,0,0,0,196,0,200,0,0,0,0,0,0,0,0,0,0,0,0,0,238,231,228,226,223,221,218,213,209,205,203,200,199,197,196,194,194,193,192,190,190,189,190,191,192,193,194,194,196,198,202,206,212,215,218,223,229,233,242,252,6,16,30,48,69,80,78,76,71,67,62,56,50,44,42,41,39,38,37,35,35,34,33,32,32,32,32,33,34,33,33,33,32,34,33,34,34,37,37,42,47,58,68,82,92,97.00001,0,0,207,224,230,234,222,218,211,211,212,214,207,201,198,191,193,198,193,193,202,199,188,186,182,171,163,164,158,152,145,139,135,134,133,134,138,143,146,151,156,165,169,172,184,189,194,198,207,207,210,218,230,228,233,239,237,240,249,5,18,33,41,0,0,139,142,143,143,138,0,0,255,222,208,194,180,179,189,189,0,0,0,0,205,196,0,192,198,212,0,0,0,0,0,0,0,0,0,0,0,0,75,63,59,48,40,35,31,25,25,33,40,52,74,0,0,0,0,0,0,0,0,0,0,0,0,0,0,0,0,0,0,0,0,0,0,0,0,0,0,189,173,166,147,143,141,136,131,126,124,119,115,114,115,109,107,102,100,96.00001,93,93,91,89,90,89,84,86,76,64,62,52,29,19,13,5,7,17,21,25,27,12,10,11,16,16,43,49,53,42,47,40,35,0,47,0,0,0,0,0,0,0,53,57,45,52,46,48,39,49,36,21,11,5,1,0,7,7,3,4,254,240,220,217,0,0,0,193,188,190,185,194,0,0,0,0,0,0,0,0,0,0,0,0,0,0,0,0,0,0,0,0,0,0,0,0,0,0,0,0,0,0,0,0,0,0,0,0,0,0,0,0,0,0,0,0,0,0,0,0,0,0,0,0,0,0,0,0,0,0,0,0,0,0,0,0,0,0,0,0,0,0,0,0,0,0,0,0,0,0,0,0,0,0,0,0,0,0
0,0,0,0,0,0,0,0,0,0,0,0,0,0,0,0,0,0,0,0,0,0,0,0,0,0,0,0,0,0,0,0,0,0,0,0,0,0,0,0,0,0,0,0,0,0,0,0,0,0,0,0,0,0,0,0,0,0,0,0,0,0,0,0,0,0,0,0,0,0,0,0,0,0,0,0,0,0,0,0,0,0,0,0,0,0,0,0,0,0,0,0,0,0,0,0,0,0,0,0,0,0,0,0,0,0,0,0,0,0,0,0,0,0,0,0,0,0,0,0,0,0,0,0,0,0,0,0,0,0,0,0,0,0,0,0,0,0,0,0,0,0,0,0,141,139,137,0,0,0,138,0,0,120,0,0,132,139,154,161,159,151,0,0,0,0,165,0,180,175,178,181,177,170,168,0,171,172,0,0,0,0,0,0,0,0,0,233,0,237,0,0,221,217,206,215,215,210,0,0,0,0,0,0,0,0,0,0,0,0,0,0,0,0,236,3,0,0,0,0,0,0,0,0,0,0,0,0,0,0,0,0,0,0,0,0,236,230,228,224,221,219,216,212,208,206,204,200,199,196,194,193,192,191,191,190,189,190,190,191,192,192,193,194,196,198,201,205,211,214,219,224,229,234,243,251,9,21,32,50,69,76,75,74,68,65,60,54,49,45,41,40,39,37,37,36,35,35,35,32,32,32,32,32,32,31,31,32,32,34,33,34,35,36,36,40,45,52,65,78,88,94,0,0,227,240,244,245,231,223,216,214,216,223,216,211,209,205,204,206,199,200,207,201,192,189,181,167,159,159,155,150,145,140,133,130,130,134,133,143,148,154,161,166,175,179,186,193,200,207,217,222,225,234,237,234,236,242,236,242,250,8,22,40,47,0,0,138,141,143,143,139,0,0,16,241,223,210,197,196,205,208,220,231,243,236,229,217,224,214,218,236,0,245,0,0,0,0,0,0,0,0,0,0,0,67,56,45,38,32,29,26,27,34,39,53,0,0,0,0,0,0,0,0,0,0,0,0,0,0,0,0,0,0,0,0,0,0,0,0,0,202,203,189,176,170,155,151,149,146,142,137,134,130,127,122,125,121,117,110,110,105,102,104,107,104,107,108,103,105,96.00001,82,76,67,44,29,26,17,16,25,34,36,33,21,22,24,38,46,82,91,87,72,78,0,0,0,0,0,0,0,85,80,79,84,75,69,62,70,66,66,58,62,50,0,0,18,18,14,21,20,15,9,11,252,243,236,229,0,224,217,216,216,217,222,233,0,0,0,0,0,0,0,0,0,0,0,0,0,0,0,0,0,0,0,0,0,0,0,0,0,0,0,0,0,0,0,0,0,0,0,0,0,0,0,0,0,0,0,0,0,0,0,0,0,0,0,0,0,0,0,0,0,0,0,0,0,0,0,0,0,0,0,0,0,0,0,0,0,0,0,0,0,0,0,0,0,0,0,0,0
0,0,0,0,0,0,0,0,0,0,0,0,0,0,0,0,0,0,0,0,0,0,0,0,0,0,0,0,0,0,0,0,0,0,0,0,0,0,0,0,0,0,0,0,0,0,0,0,0,0,0,0,0,0,0,0,0,0,0,0,0,0,0,0,0,0,0,0,0,0,0,0,0,0,0,0,0,0,0,0,0,0,0,0,0,0,0,0,0,0,0,0,0,0,0,0,0,0,0,0,0,0,0,0,0,0,0,0,0,0,0,0,0,0,0,0,0,0,0,0,0,0,0,0,0,0,0,0,0,0,0,0,0,0,0,0,0,0,0,0,0,0,0,0,0,0,0,0,0,0,154,0,0,0,0,0,0,0,0,187,188,0,0,0,0,176,182,188,0,193,192,194,192,0,0,0,0,0,0,203,0,0,0,0,0,0,0,0,0,0,0,0,0,0,0,0,228,232,0,0,0,0,0,0,0,0,0,0,0,0,0,0,0,0,0,0,0,0,0,0,0,0,0,0,0,0,0,0,0,0,0,0,0,0,0,0,234,230,226,224,220,218,216,212,207,205,203,200,198,196,193,191,191,190,190,189,189,189,190,191,193,193,193,194,195,197,200,204,210,213,217,224,229,236,244,255,8,20,31,53,69,74,72,70,66,63,58,54,48,44,41,39,38,36,36,34,33,33,32,31,31,32,31,31,30,31,30,32,31,34,32,34,33,35,35,39,43,52,64,75,84,92,0,0,244,254,2,253,237,225,221,222,234,242,241,233,229,225,226,220,212,206,209,201,194,190,182,167,163,165,156,151,146,136,131,130,132,131,137,142,148,154,159,166,173,177,191,198,206,214,226,229,235,242,249,247,255,6,0,8,15,26,39,50,54,0,0,138,143,144,145,141,0,0,38,7,245,235,224,0,240,0,0,0,0,0,247,246,251,239,238,246,3,0,247,246,0,0,0,0,0,0,0,0,108,68,53,41,34,23,28,30,34,39,46,53,66,0,0,0,0,0,0,0,0,0,0,0,0,0,0,0,0,0,0,0,0,0,0,0,0,225,216,204,193,183,167,164,159,157,154,149,145,144,138,134,135,130,125,119,120,117,114,117,118,116,116,116,110,111,101,94,89,80,61,42,30,20,20,30,46,62,56,45,44,0,0,94,130,136,125,0,0,0,0,0,0,0,112,0,112,102,89,97.00001,84,76,71,77,74,74,66,70,56,0,35,0,34,38,39,37,33,28,31,27,26,15,5,249,239,228,229,228,234,248,7,255,0,0,0,0,0,0,0,0,0,0,0,0,0,0,0,0,0,0,0,0,0,0,0,0,0,0,0,0,0,0,0,0,0,0,0,0,0,0,0,0,0,0,0,0,0,0,0,0,0,0,0,0,0,0,0,0,0,0,0,0,0,0,0,0,0,0,0,0,0,0,0,0,0,0,0,0,0,0,0,0,0,0,0,0
