31,31,31,31,31,31,31,31,31,31,31,31,31,31,31,31,31,31,31,32,32,32,31,31,30,31,31,31,31,31,31,31,31,31,31,31,32,32,32,33,34,34,33,33,33,33,33,33,32,31,31,31,31,31,31,31,31,31,31,31,31,31,31,32,33,33,33,33,33,33,33,33,33,33,33,33,33,33,33,32,33,33,28,25,28,33,33,163,180,164,147,135,130,129,126,127,116,95,96.00001,108,103,108,109,77,59,94,129,142,140,139,141,144,150,153,173,190,190,186,181,176,169,158,149,136,100,48,20,14,15,17,20,20,16,14,16,21,20,15,22,19,16,21,22,22,21,19,27,74,88,88,91,95,99.00001,89,89,94,101,113,137,171,189,183,181,174,165,157,143,125,94,81,79,79,77,77,76,77,78,78,77,77,77,76,76,74,71,68,64,64,59,54,51,49,47,45,40,33,31,28,25,25,23,21,20,20,19,19,17,15,15,14,13,13,13,14,15,17,20,23,25,33,50,66,80,94,104,118,129,136,141,145,151,158,166,169,170,170,169,167,163,165,160,161,161,160,160,159,158,157,152,149,148,146,145,145,146,147,152,156,159,163,170,168,171,175,179,179,181,183,183,182,181,180,179,178,176,175,174,173,174,175,176,179,179,179,182,187,193,197,203,207,210,211,212,211,210,210,210,207,206,206,206,207,209,211,212,213,214,214,214,213,212,210,206,202,197,195,191,190,190,189,190,190,191,195,197,201,205,210,211,214,217,217,217,216,215,215,217,215,214,216,218,221,222,219,215,209,203,196,188,181,172,157,138,112,90,69,72,74,76,79,86,93,96.00001,101,88,71,97.00001,103,86,74,75,39,8,9,23,27,39,74,103,111,125,139,149,156,165,167,174,177,171,177,178,182,184,181,179,181,179,177,182,179,175,179,178,175,175,173,172,171,167,163,159,161,141,121,103,94,92,88,82,77,67,63,56,49,39,34,32,31,27,25,21,19,16,16,16,17,16,16,16,19,24,23,25,28,27,28,31,33,32,33,35,35,36,36,41,44,47,48,45,39,39,43,54,56,57,52,49,45,41,47,50,47,46,44,42,40,38,41,47,56,44,19,34,34,35,87,99.00001,94,86,83,85,84,87,83,70,41,22,13,12,12,9,8,8,8,7,7,7,7,6,6,6,6,6,6,5,5,5,5,5,5,5,5,5,5,5,5,5,4,8,7,8,22,70,62,66,72,66,65,66,66,69,69,70,70,71,71,72,72,74,74,76,76,77,77,78,81,84,84,85,83,83,88,84,91,84,85,85,90,85,84,90,80,86,90,79,80,90,88,90,93,58,67,67,49,58,46,62,67,49,69,91,91,91,93,96.00001,93,95,98.00001,94,96.00001,95,100,95,97.00001,113,112,107,96.00001,90,90,80,86,45,27,29,33,82,88,93,98.00001,94,97.00001,115,106,89,88,96.00001,95,89,91,96.00001,97.00001,100,97.00001,92,87,87,86,88,95
31,31,31,31,31,31,31,31,31,31,31,31,31,31,31,31,31,31,31,32,32,32,31,31,30,31,31,31,31,31,31,31,31,31,31,31,32,32,32,33,34,33,33,33,33,33,33,33,32,31,31,31,31,31,31,31,31,31,31,31,31,31,31,32,33,33,33,33,33,33,33,33,33,33,33,33,33,33,33,32,32,32,28,25,28,30,32,156,159,145,132,126,131,127,127,126,114,99.00001,96.00001,99.00001,107,109,87,85,68,86,128,140,139,138,140,143,150,153,173,190,190,186,181,176,169,158,149,136,96.00001,35,14,15,16,16,14,14,14,14,15,17,17,19,21,20,22,22,20,20,23,25,48,81,88,88,91,95,98.00001,88,86,93,99.00001,113,136,171,185,181,179,173,164,157,143,125,94,81,79,79,78,77,76,77,78,78,77,76,76,75,75,74,71,68,64,64,59,54,51,49,47,45,41,34,31,28,25,25,24,21,20,20,19,19,17,15,15,14,13,13,13,14,15,17,20,23,25,34,50,65,78,93,103,117,129,136,141,145,151,157,166,168,169,170,168,167,163,163,162,162,162,162,162,160,159,157,153,152,150,148,148,148,148,147,153,156,159,164,167,168,173,178,179,181,183,183,183,182,181,181,180,179,178,176,175,175,175,176,177,179,180,181,183,187,194,197,203,207,211,211,212,211,210,210,210,207,206,205,206,207,209,210,212,213,214,214,214,214,212,210,206,202,197,194,191,190,189,189,190,190,193,197,200,203,207,211,212,215,217,218,217,216,215,215,216,214,215,216,218,221,219,216,212,204,197,190,183,176,165,148,127,102,76,58,69,72,78,81,86,93,96.00001,101,85,68,94,103,85,76,75,47,13,10,23,27,33,73,99.00001,114,128,138,146,149,159,160,161,162,163,162,160,150,141,143,142,140,129,126,126,123,121,120,113,107,95,90,81,76,65,51,47,47,34,29,28,23,20,19,19,17,19,19,19,16,20,17,19,20,23,24,25,27,32,33,35,38,46,46,50,54,48,49,54,56,51,51,54,54,60,60,61,62,63,66,69,72,67,58,42,33,52,56,52,48,50,48,46,43,38,47,49,47,44,39,38,39,39,43,44,45,30,16,25,31,40,68,67,68,79,81,84,80,77,74,57,29,19,13,13,14,13,13,13,9,6,5,5,5,5,6,6,6,5,6,5,5,5,5,5,5,5,5,5,5,5,5,5,5,5,4,4,22,69,59,64,68,65,64,65,65,67,67,68,68,68,68,70,72,73,73,74,75,77,80,66,75,72,65,71,58,59,68,66,66,50,68,59,66,60,65,72,72,58,60,73,57,90,88,90,93,54,65,59,34,39,36,58,66,49,69,91,91,92,94,95,92,94,95,93,96.00001,100,99.00001,95,91,91,88,94,95,90,95,84,83,44,24,32,35,87,86,92,103,107,100,99.00001,84,87,82,89,89,84,84,85,85,86,81,79,84,86,87,90,97.00001
31,31,31,31,31,31,31,31,31,31,31,31,31,31,31,31,31,31,31,32,32,32,31,31,30,31,31,31,31,31,31,31,31,31,31,31,32,32,32,33,34,33,33,33,33,33,33,33,32,31,31,31,31,31,31,31,31,31,31,31,31,31,31,32,33,33,33,33,33,33,33,33,33,33,33,33,33,33,33,32,32,32,28,25,28,31,31,129,129,127,124,126,129,129,133,121,112,99.00001,94,92,105,94,68,109,89,70,127,138,138,137,139,143,150,153,173,190,190,188,181,176,170,159,149,136,93,27,13,17,13,16,20,16,16,16,20,20,20,29,21,15,22,23,21,22,22,39,65,81,88,90,92,95,97.00001,86,85,92,99.00001,114,136,163,177,175,176,170,164,158,144,125,94,81,79,79,79,78,77,77,78,78,77,76,76,75,75,74,71,68,64,64,60,56,52,50,47,46,41,34,31,29,28,25,24,21,20,20,19,19,17,15,15,14,13,13,13,13,14,16,19,21,25,33,48,62,76,90,102,116,127,136,140,145,151,157,165,167,168,169,167,166,162,162,163,162,163,165,163,162,161,158,154,153,151,151,150,149,149,149,154,157,160,165,168,173,176,179,181,183,183,185,183,183,182,182,181,180,179,178,176,176,176,176,178,180,181,182,184,189,195,199,205,207,211,211,212,211,210,210,209,207,205,205,206,207,209,210,212,213,214,214,216,214,212,210,207,202,197,194,190,189,189,190,190,191,194,197,201,203,208,212,214,216,218,218,217,215,214,214,214,215,215,216,218,218,217,213,207,199,192,186,180,170,158,138,112,87,65,57,68,72,78,82,86,93,96.00001,101,82,62,90,103,84,80,77,63,24,16,23,28,31,59,80,90,100,102,106,103,99.00001,97.00001,91,89,89,79,69,59,56,57,54,49,42,44,41,43,43,47,50,49,54,52,54,54,45,60,45,32,29,31,31,33,34,33,35,36,40,44,47,49,46,49,54,54,57,58,61,64,72,72,73,73,66,66,71,75,77,77,79,78,78,78,78,78,79,79,79,79,78,79,79,81,70,56,39,39,61,56,52,58,56,54,49,45,39,47,47,43,43,41,44,45,46,50,46,43,48,71,80,90,94,85,83,87,80,84,85,77,70,68,47,28,16,13,14,15,14,14,13,8,8,7,6,6,5,6,4,6,5,6,6,6,5,5,5,5,5,5,5,5,5,5,5,5,5,4,8,25,65,54,67,67,64,64,64,64,66,66,66,66,66,66,68,70,71,72,74,74,74,80,46,60,56,50,60,48,43,70,61,79,54,72,63,67,85,71,67,78,51,60,83,57,91,88,90,94,57,64,58,35,34,32,46,61,49,69,91,91,83,84,84,80,79,79,84,93,100,97.00001,96.00001,95,96.00001,93,96.00001,93,88,97.00001,86,83,49,24,34,34,94,92,92,100,115,101,93,87,81,75,83,85,78,80,83,84,84,86,86,88,86,87,93,102
31,31,31,31,31,31,31,31,31,31,31,31,31,31,31,31,32,32,32,33,33,33,32,32,31,32,32,32,32,32,32,32,32,32,32,32,33,33,33,33,33,33,33,33,33,33,33,33,32,31,31,31,31,31,31,31,31,31,31,31,31,31,31,32,32,33,33,33,33,33,33,33,33,33,33,33,33,33,33,32,32,32,27,25,27,35,29,110,123,125,127,128,134,122,128,124,109,94,91,93,97.00001,76,66,120,99.00001,63,129,137,139,138,140,144,150,153,173,190,191,188,182,177,171,160,150,137,96.00001,30,15,12,17,21,20,15,14,17,21,17,21,22,21,24,22,20,24,25,31,54,64,69,87,89,91,94,96.00001,86,85,92,103,115,131,155,172,172,174,170,164,158,144,125,94,81,79,79,79,78,77,76,77,78,76,75,74,74,74,74,71,68,65,65,61,58,54,51,48,46,41,34,31,29,27,25,24,22,21,20,20,19,17,15,15,14,13,13,13,13,14,16,16,21,25,33,47,60,74,88,102,116,127,136,140,145,151,157,163,166,168,168,167,166,162,162,163,163,165,166,166,165,162,158,156,154,153,153,152,152,151,150,156,160,163,167,175,180,181,182,182,183,183,185,183,183,183,182,182,181,180,179,178,178,176,176,178,180,181,183,186,190,196,199,205,207,210,211,212,211,210,210,209,206,205,205,206,207,209,210,212,213,214,215,215,214,212,210,207,201,196,193,190,190,190,190,190,193,196,200,203,205,209,214,215,216,218,218,217,215,214,211,216,215,216,217,217,216,214,208,201,192,186,180,171,159,144,123,100,74,60,58,69,73,74,79,86,93,96.00001,101,79,58,88,105,84,83,79,71,29,17,22,27,27,39,59,58,47,45,48,40,45,48,51,54,49,51,58,71,77,75,81,86,98.00001,108,120,132,143,150,159,161,166,170,177,178,160,110,65,61,58,54,50,59,57,54,56,57,60,64,68,71,70,73,78,78,78,77,78,80,86,83,80,77,80,79,80,83,87,86,83,81,79,79,79,79,79,79,79,79,77,78,78,78,69,51,36,41,62,50,51,56,58,54,49,46,38,45,45,43,40,41,43,45,49,58,54,48,64,80,86,85,86,77,78,79,79,80,78,72,66,65,43,28,14,13,14,15,13,14,13,10,9,9,7,7,6,6,6,6,6,6,6,6,5,5,5,5,5,5,5,5,5,4,4,4,5,4,7,25,62,51,68,64,62,61,62,62,64,65,65,65,65,65,66,66,68,69,70,72,73,75,35,44,44,47,57,52,42,63,64,87,57,73,49,63,57,54,80,87,70,72,60,64,90,86,90,94,64,62,49,32,34,32,47,65,49,69,91,91,80,80,82,81,79,75,81,96.00001,95,96.00001,95,92,94,93,94,94,91,97.00001,86,85,56,28,35,30,87,93,99.00001,105,103,88,79,81,76,75,81,78,79,80,78,78,91,107,107,95,88,90,96.00001,106
31,31,31,31,31,31,31,31,31,31,31,31,31,31,31,32,32,33,33,33,33,33,33,33,33,33,33,33,33,33,33,33,33,33,33,33,33,33,33,33,33,33,33,33,33,33,33,33,32,31,31,31,31,31,31,31,31,31,31,31,31,31,31,31,30,31,31,31,31,31,31,31,31,31,31,31,31,31,31,31,31,31,25,24,25,29,28,97.00001,118,124,128,127,126,124,122,120,108,89,81,76,78,58,76,115,99.00001,70,122,140,143,138,140,144,150,154,174,192,191,189,184,179,172,162,156,139,98.00001,30,9,13,20,17,16,17,17,21,22,23,23,22,22,22,21,21,21,24,39,51,61,71,85,88,89,92,94,85,85,92,97.00001,112,125,136,161,171,172,170,163,157,146,126,94,81,79,79,79,79,77,76,76,77,75,74,73,73,73,73,71,69,66,66,64,60,57,54,49,46,42,35,31,29,24,24,27,24,23,22,21,20,19,17,15,15,15,13,14,13,14,15,17,23,25,33,46,58,75,87,102,116,126,136,143,147,151,155,155,159,161,166,166,166,162,161,165,166,166,167,167,166,163,163,156,158,158,158,157,158,159,160,159,166,172,175,180,182,183,183,183,185,185,185,183,183,183,183,183,182,181,180,179,179,178,177,178,180,182,184,187,191,196,199,205,207,210,211,212,211,210,209,209,206,205,205,206,207,209,211,212,212,213,214,214,213,211,209,204,200,196,193,190,189,189,189,191,193,197,202,207,208,210,214,215,216,217,217,216,215,214,215,215,215,216,215,214,211,208,202,191,186,184,172,163,145,129,108,84,63,56,56,61,67,72,73,86,95,96.00001,98.00001,78,62,87,112,89,83,81,70,31,27,23,33,40,49,67,75,88,96.00001,105,113,127,136,149,158,169,171,183,190,192,197,202,205,209,211,212,214,215,215,213,213,212,210,206,200,185,119,81,76,76,77,80,81,90,88,88,87,84,84,84,84,84,83,86,84,85,78,81,83,91,83,76,75,79,82,83,83,83,83,83,83,81,81,81,80,78,80,80,80,81,80,80,81,70,56,41,40,59,60,48,52,45,38,54,47,38,43,42,40,38,38,41,46,50,59,76,74,62,68,73,75,74,72,68,66,58,58,54,49,51,58,46,27,17,14,14,15,16,16,15,14,10,10,9,9,9,7,7,7,6,5,6,6,5,5,5,5,5,4,4,4,4,4,4,4,4,4,6,23,62,54,64,64,62,60,59,60,62,65,66,65,64,65,66,63,61,61,63,64,67,75,63,69,66,56,67,59,68,71,73,76,78,79,79,79,79,82,83,86,80,82,83,83,83,84,89,93,49,54,51,45,48,46,43,40,33,64,90,90,80,76,79,82,75,75,80,93,94,94,94,92,92,93,94,95,94,98.00001,96.00001,89,64,25,36,36,90,95,98.00001,98.00001,87,88,80,73,75,72,74,76,79,82,94,123,138,117,108,90,92,88,94,110
31,31,31,31,31,31,31,31,31,31,31,31,31,31,31,31,32,32,32,32,32,32,32,33,33,33,33,33,33,33,33,33,33,33,33,33,33,33,33,33,33,33,33,33,33,33,33,33,32,31,31,31,31,31,31,31,31,31,31,31,31,31,31,31,30,30,30,30,30,30,30,30,30,30,30,30,30,30,30,30,30,30,24,23,24,30,27,94,119,124,126,126,125,123,120,118,100,87,77,64,58,48,71,104,87,65,100,126,144,138,141,145,150,154,174,192,192,190,185,180,173,163,156,139,102,34,17,21,17,21,20,15,21,22,23,24,23,22,22,22,23,23,23,33,45,48,58,77,84,87,89,90,93,84,85,92,104,108,112,125,148,164,165,165,163,157,146,127,94,81,80,80,80,80,78,77,77,77,75,74,73,73,73,73,72,70,66,66,64,61,57,54,49,47,42,35,31,28,24,24,27,25,23,22,21,20,19,17,15,15,15,14,14,13,14,15,17,23,27,33,46,58,75,86,102,115,125,133,139,144,146,152,154,158,161,165,166,166,162,163,165,167,167,167,167,166,165,163,159,160,160,160,160,162,163,165,169,174,178,180,182,183,183,185,185,185,185,186,185,185,185,185,183,182,181,181,179,179,178,177,179,180,183,186,188,191,196,200,205,207,210,211,212,211,211,209,207,206,205,205,206,207,209,210,212,211,212,214,214,212,210,209,202,200,195,193,190,189,189,190,191,194,200,204,208,209,211,214,216,216,216,216,216,215,214,212,211,211,214,211,210,209,204,198,188,185,175,164,152,134,117,91,67,54,50,51,58,64,69,72,83,93,96.00001,100,85,71,92,113,93,87,87,78,58,86,112,129,145,152,162,168,175,182,184,191,193,198,201,203,205,203,205,208,210,211,212,211,211,211,211,212,216,216,212,212,213,211,206,199,188,125,92,86,90,90,89,89,88,88,87,86,84,82,82,83,90,83,83,86,80,86,82,87,89,82,79,79,80,80,81,82,82,82,82,82,81,81,81,80,80,80,81,81,81,80,80,80,69,52,40,41,57,54,40,43,32,28,48,43,36,41,41,39,36,38,42,48,56,64,86,89,73,67,59,57,43,32,22,20,25,30,36,39,44,45,36,23,17,14,13,13,14,14,13,12,10,10,10,10,10,9,9,9,13,9,6,6,5,6,5,5,5,4,4,4,4,4,4,4,4,3,5,20,58,51,61,60,57,56,56,57,59,61,62,62,61,62,62,59,57,57,59,59,61,68,66,70,72,66,73,69,72,73,74,74,75,77,78,78,79,79,75,73,71,72,73,74,77,83,88,85,41,28,28,39,41,39,38,35,33,62,86,93,83,73,75,83,80,76,78,89,94,93,93,92,92,93,93,95,94,97.00001,93,85,68,29,40,41,84,90,82,98.00001,82,69,74,76,76,78,81,79,92,111,108,100,97.00001,91,94,85,87,88,94,105
31,31,31,31,31,31,31,31,31,31,31,31,31,31,31,31,30,30,30,30,30,30,30,31,33,33,33,33,33,33,33,33,33,33,33,33,33,33,33,33,33,33,33,33,33,33,33,33,32,31,31,31,31,31,31,31,31,31,31,31,31,31,31,31,30,30,30,30,30,30,30,30,30,30,30,30,30,30,30,30,30,30,24,23,23,30,24,88,119,124,125,124,125,123,120,118,104,84,63,52,43,40,41,46,43,35,49,99.00001,140,135,141,145,150,154,174,192,192,190,185,180,173,163,155,138,102,30,17,17,22,21,20,21,21,23,25,27,25,23,22,22,22,23,30,43,51,45,54,71,83,87,89,89,92,83,88,97.00001,101,106,109,123,143,159,163,166,161,157,147,128,97.00001,82,81,81,81,81,79,79,79,78,76,76,75,75,74,74,72,70,66,66,64,61,57,54,49,47,42,35,31,28,24,24,27,25,23,22,21,20,19,17,15,15,15,14,14,13,14,15,19,24,29,36,46,58,74,85,101,113,122,130,134,139,141,147,153,157,161,165,167,168,165,165,166,166,167,167,166,166,165,165,163,163,163,163,165,167,169,171,175,178,181,182,183,183,183,185,185,185,185,186,185,185,185,185,183,183,182,181,180,179,179,178,180,182,184,187,189,193,197,200,205,206,210,211,212,211,211,209,207,206,205,205,206,207,209,210,213,212,214,215,212,211,209,207,201,198,194,191,189,188,189,190,193,195,201,205,208,210,212,214,216,216,216,216,216,215,214,211,210,210,211,210,207,205,202,196,187,182,168,157,144,122,103,74,54,49,47,48,54,61,67,73,81,91,96.00001,102,95,83,99.00001,114,92,88,92,84,62,113,142,151,159,164,171,174,181,186,188,192,198,199,201,202,205,206,209,211,212,212,212,212,212,212,212,213,216,216,212,212,213,209,204,197,183,127,100,94,93,92,88,89,88,88,87,86,84,82,82,82,88,83,86,88,87,77,88,86,92,82,75,79,79,79,81,83,82,82,82,82,81,81,81,80,80,80,81,81,81,80,80,80,68,54,41,40,48,42,29,36,33,28,48,44,39,39,39,40,40,41,46,51,56,69,73,62,54,51,43,40,32,29,31,36,42,44,46,44,35,28,22,21,15,13,10,10,10,12,10,9,8,7,7,7,9,9,9,10,12,9,6,6,6,6,6,6,5,5,4,4,4,4,4,4,5,6,4,19,54,51,58,57,52,51,50,51,54,56,57,58,59,59,59,57,54,54,54,54,52,59,65,66,68,66,66,66,74,75,73,73,74,77,78,79,79,79,68,68,67,68,70,70,81,81,84,87,68,62,63,68,68,70,75,77,72,77,87,87,81,71,73,81,80,77,78,87,93,90,90,92,92,90,93,93,100,101,90,79,68,24,36,41,80,112,98.00001,94,104,96.00001,96.00001,90,88,86,82,81,85,89,86,83,90,95,99.00001,99.00001,107,111,110,111
31,31,31,31,31,31,31,31,31,31,31,31,31,31,31,31,30,29,29,29,29,29,29,30,32,33,33,33,33,33,33,33,33,33,33,33,33,33,33,33,33,33,33,33,33,33,33,33,32,31,31,31,31,31,31,31,31,31,31,31,31,31,31,31,30,30,30,30,30,30,30,30,30,30,30,30,30,30,30,30,30,30,24,23,23,30,24,86,119,124,123,123,125,123,120,118,100,64,39,31,33,35,33,29,34,34,29,90,138,134,141,145,150,154,174,192,192,190,185,180,173,163,155,138,104,35,34,38,40,31,29,38,36,38,40,40,33,29,24,24,27,27,35,50,46,45,65,79,81,86,88,87,91,83,89,97.00001,101,109,111,118,136,152,161,164,161,159,147,128,98.00001,84,82,82,82,82,81,80,80,79,77,77,77,76,75,75,72,70,66,66,64,61,57,54,49,47,42,35,31,28,24,24,27,25,23,22,21,20,19,17,15,15,15,14,14,13,14,15,19,24,29,38,47,58,73,82,98.00001,111,120,127,133,137,140,146,152,155,160,165,167,168,166,166,166,166,166,166,166,166,165,165,165,165,166,166,168,170,174,176,177,178,180,183,183,185,185,185,185,185,185,186,185,185,185,185,183,183,183,182,181,180,180,179,182,183,186,187,190,194,197,200,205,206,210,211,212,212,211,209,207,206,205,205,206,207,209,210,213,212,215,215,212,211,208,204,200,197,193,190,189,188,189,191,194,197,203,208,209,211,212,215,215,216,216,215,215,215,212,210,210,210,210,208,207,204,202,196,187,178,165,149,134,113,86,59,47,44,43,44,52,59,65,73,80,90,97.00001,104,98.00001,88,101,114,91,87,91,82,51,109,144,150,157,162,169,174,181,186,190,197,197,199,200,201,205,208,209,209,210,210,211,212,214,214,214,215,214,216,212,212,212,209,203,196,183,128,101,92,92,91,91,90,89,88,88,86,84,83,82,82,80,87,85,85,103,94,103,106,104,88,77,77,77,78,81,81,81,81,82,82,81,81,81,80,80,80,81,81,81,80,80,79,66,54,41,33,35,31,25,36,34,28,45,40,39,38,38,41,44,46,52,60,64,70,61,46,60,59,50,45,43,44,45,42,41,41,42,41,35,30,25,24,17,14,10,10,10,12,12,10,8,9,9,9,10,12,12,12,5,7,7,6,9,9,9,9,7,6,5,4,4,4,5,5,7,6,10,21,54,52,58,58,52,50,50,50,51,52,54,57,59,60,59,56,52,52,54,52,49,52,59,63,66,65,65,66,68,71,71,73,75,77,78,78,79,79,68,71,67,67,70,70,76,79,79,81,88,87,87,87,86,86,87,85,80,82,84,86,76,72,75,79,78,74,74,82,85,85,85,85,85,86,87,89,91,95,89,80,72,25,38,45,87,83,104,102,96.00001,94,87,84,79,77,79,85,92,91,92,94,92,100,96.00001,101,112,122,126,128
30,30,30,30,30,30,30,30,30,30,30,30,30,30,30,30,30,29,29,29,29,29,29,30,32,33,33,33,33,33,33,33,33,33,33,33,33,33,33,33,33,33,33,33,33,33,33,33,32,31,31,31,31,31,31,31,31,31,31,31,31,31,31,31,30,30,30,30,30,30,30,30,30,30,30,30,30,30,30,30,30,30,24,23,20,29,29,80,115,121,123,121,123,123,119,105,56,40,25,28,30,30,31,30,31,32,24,88,140,135,140,145,151,154,174,192,193,191,186,181,173,163,155,137,101,42,42,38,39,36,44,52,47,41,46,43,40,36,39,40,38,48,40,47,40,41,63,81,74,80,87,85,97.00001,85,87,96.00001,100,106,112,115,132,140,156,163,160,159,147,130,99.00001,85,84,83,83,83,82,82,82,80,80,80,79,79,77,76,74,71,68,68,64,61,57,54,49,47,42,35,31,28,24,24,27,25,23,22,21,20,19,17,15,15,15,14,14,13,14,15,20,25,30,39,47,58,70,79,95,108,117,124,131,136,140,146,149,154,159,163,167,167,167,167,166,166,166,166,166,166,166,167,167,167,168,168,170,174,176,178,177,179,181,183,185,185,185,185,186,186,186,186,186,186,186,186,185,185,183,182,182,181,181,182,182,183,186,188,190,194,197,200,206,207,210,211,213,212,211,209,207,206,205,205,206,207,209,210,213,214,214,214,211,210,207,202,197,194,193,190,189,188,189,193,195,198,202,205,209,211,214,215,216,216,217,215,216,214,211,209,208,208,208,205,203,202,200,194,184,172,161,141,120,96.00001,68,46,47,43,42,44,50,57,65,75,80,90,98.00001,104,100,91,101,114,90,85,87,82,47,104,134,147,158,161,169,175,180,186,188,190,190,194,194,192,199,204,207,210,210,211,211,211,212,211,211,212,216,214,212,212,213,208,203,196,183,133,103,92,91,91,91,90,90,90,89,87,85,84,83,82,83,84,86,93,111,121,101,99.00001,103,93,81,77,75,79,83,82,82,82,82,82,81,81,81,81,81,81,82,81,81,79,79,77,64,51,39,28,23,22,23,32,28,25,46,39,30,30,43,46,47,58,62,66,67,70,67,62,83,85,80,73,64,60,54,52,49,50,49,47,40,35,33,32,28,24,21,19,19,19,19,16,9,9,9,9,9,9,7,7,7,9,9,7,6,5,6,7,7,6,6,5,5,4,4,4,6,6,10,20,50,51,54,59,49,48,48,48,49,49,52,52,59,59,58,56,54,54,54,51,49,51,57,58,62,64,68,69,65,67,71,73,74,75,77,78,80,77,67,71,67,67,70,69,70,80,78,77,84,75,72,69,73,69,70,74,78,73,77,78,71,71,77,78,79,76,73,77,73,73,73,73,74,76,78,79,87,87,87,79,66,25,39,44,79,95,82,90,89,82,83,84,78,80,84,86,80,82,84,87,90,89,95,95,96.00001,102,108,115
30,30,30,30,30,30,30,30,30,30,30,30,30,30,30,30,30,30,30,30,30,30,30,31,33,33,33,33,33,33,33,33,33,33,33,33,33,33,33,33,33,33,33,33,33,33,33,33,32,31,31,31,31,31,31,31,31,31,31,31,31,31,31,31,30,30,30,30,30,30,30,30,30,30,30,30,30,30,30,30,30,30,24,23,24,29,23,65,99.00001,112,120,124,126,126,118,81,31,30,28,31,30,27,24,27,28,29,23,88,141,135,140,145,151,154,174,192,193,191,186,181,173,163,154,137,102,49,39,29,31,49,67,68,60,49,46,40,36,36,39,40,39,58,44,42,35,30,52,81,77,74,75,84,73,49,49,68,92,100,112,118,117,128,147,162,159,159,147,130,100,86,85,84,84,84,83,83,82,80,81,81,80,80,78,77,74,71,68,68,64,61,57,54,49,47,42,35,31,28,24,24,27,25,23,22,21,20,19,17,15,15,15,14,14,13,14,15,19,25,30,39,47,56,68,77,93,105,115,123,130,136,140,147,149,153,159,163,167,167,167,167,166,166,166,165,166,166,166,167,167,167,168,169,172,174,177,179,177,179,181,183,185,185,185,185,186,186,186,186,186,186,186,186,185,185,185,182,182,182,181,182,183,184,186,188,190,194,197,200,206,207,210,212,213,212,211,210,207,206,205,205,206,207,209,210,213,214,214,212,211,210,207,201,196,193,190,189,187,188,190,193,196,201,204,207,209,211,214,215,216,216,216,212,212,210,208,207,207,205,204,202,200,200,197,193,181,166,154,131,106,79,54,43,43,40,40,43,48,57,65,75,81,90,98.00001,105,100,90,99.00001,114,90,83,83,78,38,96.00001,134,151,158,161,168,174,180,185,186,189,187,194,196,196,203,206,206,210,210,210,210,209,209,209,210,213,216,216,212,212,213,208,203,196,185,135,106,92,93,93,92,92,91,90,89,88,85,84,84,83,86,79,90,95,104,111,102,89,90,87,81,78,74,78,85,85,83,83,82,82,81,81,81,81,81,81,82,81,81,79,79,77,62,47,36,25,23,25,23,28,33,28,38,30,22,35,46,46,57,70,77,85,85,93,92,86,94,93,90,90,90,90,89,89,86,84,79,77,71,67,57,46,41,39,34,32,31,29,28,27,24,23,22,21,19,17,15,14,12,9,12,13,12,12,13,9,9,9,9,9,7,6,6,6,7,8,10,22,50,52,54,62,50,49,49,49,49,49,52,54,57,59,56,54,52,54,54,51,52,54,54,54,56,56,61,65,64,65,65,65,66,67,68,68,67,66,63,66,66,67,68,70,71,73,68,70,86,72,69,72,70,69,73,76,81,75,77,72,76,72,75,74,76,74,72,75,75,75,75,75,76,77,80,81,80,80,81,80,60,34,32,40,102,120,114,104,93,85,82,82,81,83,86,88,88,88,88,89,88,84,92,99.00001,102,112,128,140
30,30,30,30,30,30,30,30,30,30,30,30,30,30,30,30,32,32,32,32,32,32,32,33,33,33,33,33,33,33,33,33,33,33,33,33,33,33,33,33,33,33,33,33,33,33,33,33,32,31,31,31,31,31,31,31,31,31,31,31,31,31,31,31,30,30,30,30,30,30,30,30,30,30,30,30,30,30,30,30,30,30,24,23,24,31,24,54,79,94,112,120,126,126,113,58,29,32,31,28,30,28,27,25,24,27,23,88,142,138,142,146,153,154,174,192,193,191,186,181,173,163,154,136,106,56,25,19,38,68,87,82,69,57,44,38,36,36,39,43,40,65,46,45,50,51,56,57,54,57,62,60,29,12,13,24,35,43,54,58,85,115,138,154,158,160,147,130,101,87,85,84,84,84,84,84,83,81,82,82,81,81,79,77,74,71,68,68,64,61,57,54,49,47,42,35,31,28,24,23,25,23,23,22,21,20,19,15,15,15,15,14,14,13,14,15,17,24,30,39,47,54,66,74,90,103,112,120,127,133,139,146,149,153,158,162,165,167,166,166,166,166,166,165,166,166,166,168,167,167,168,169,172,174,176,178,178,179,181,183,185,185,185,185,186,186,186,186,186,186,186,186,185,185,185,185,182,182,182,183,183,184,186,188,190,194,197,199,206,207,211,212,213,212,211,210,207,206,205,205,206,207,209,210,213,212,212,211,210,209,204,200,193,190,189,187,187,188,190,194,198,202,205,208,210,212,214,216,217,216,214,210,208,205,204,204,205,205,203,202,200,198,196,191,174,160,143,118,88,61,46,43,44,40,39,41,47,59,64,75,81,89,97.00001,106,104,91,97.00001,113,91,84,81,75,40,89,134,148,158,161,168,174,177,184,185,188,188,193,193,194,200,204,206,209,209,210,210,210,210,211,212,213,216,216,213,212,213,208,203,196,188,138,109,96.00001,95,95,94,94,92,90,89,88,85,84,84,83,86,84,84,79,86,81,94,86,84,81,83,82,74,74,80,83,82,83,82,82,81,81,81,81,81,81,81,81,81,79,79,76,65,46,36,28,25,27,22,25,30,23,23,17,21,33,40,57,78,87,86,89,98.00001,99.00001,102,101,105,105,101,98.00001,94,93,93,94,94,94,90,89,88,89,87,84,84,81,78,76,72,71,67,65,61,59,54,52,46,43,39,36,35,30,35,32,16,13,12,12,10,12,12,12,12,12,10,9,10,9,10,21,47,54,52,60,50,50,50,49,49,49,50,54,57,57,54,52,52,54,54,51,52,54,54,51,51,54,57,58,54,56,57,57,58,59,60,61,60,66,67,70,66,67,68,70,75,70,73,75,86,73,74,79,74,76,76,76,82,82,85,78,73,74,77,72,72,70,67,68,59,59,59,58,59,59,60,62,57,56,48,51,39,31,25,43,116,134,124,98.00001,100,92,90,90,86,88,90,91,85,87,91,94,101,95,99.00001,104,108,115,123,133
31,31,31,31,31,31,31,31,31,31,31,31,31,31,31,31,33,33,33,33,33,33,33,33,33,33,33,33,33,33,33,33,33,33,33,33,33,33,33,33,33,33,33,33,33,33,33,33,32,32,32,32,32,32,32,32,32,32,32,32,32,32,32,32,31,31,31,31,31,31,31,31,31,31,31,31,31,31,31,31,31,31,25,24,22,32,34,61,71,78,97.00001,116,121,122,119,58,32,30,27,29,22,22,21,21,22,27,23,90,144,139,142,148,153,156,174,192,192,191,185,180,173,163,153,135,104,54,31,36,56,83,99.00001,90,72,59,43,38,36,36,42,45,39,64,46,52,92,102,107,106,93,81,67,46,21,22,22,24,27,28,29,30,62,107,138,154,157,160,148,131,102,88,85,84,84,84,84,85,83,82,83,83,81,81,80,78,75,71,68,68,64,59,57,54,51,47,43,36,31,29,23,23,25,24,24,23,20,20,17,17,16,16,15,15,15,14,15,15,19,24,31,39,46,54,64,71,89,101,110,118,127,133,138,145,150,154,159,162,165,166,166,166,166,166,165,165,165,166,167,168,167,166,168,169,170,172,176,178,178,179,181,183,185,185,185,185,186,186,186,186,186,186,186,186,185,185,185,183,183,183,182,183,183,184,186,187,189,193,197,198,206,209,211,212,213,213,212,210,207,206,205,205,206,207,209,210,213,212,211,211,210,208,203,198,190,189,188,186,187,188,191,194,201,204,207,210,211,214,215,216,217,215,211,208,205,204,204,204,204,204,204,202,200,198,193,184,167,150,128,104,71,45,44,45,42,38,40,41,47,59,64,72,82,88,98.00001,108,108,95,97.00001,112,91,83,81,73,33,83,133,151,158,161,168,174,178,184,186,187,191,196,195,197,203,204,204,209,209,209,208,211,211,208,209,213,215,215,214,213,213,209,203,196,188,140,110,98.00001,98.00001,96.00001,95,95,93,91,89,88,86,84,84,86,86,88,88,90,89,87,84,85,83,81,85,85,78,77,82,83,82,82,83,82,82,81,81,81,81,81,81,81,81,79,78,76,66,47,38,30,25,24,22,29,33,25,25,23,21,29,47,88,131,140,136,136,124,119,108,98.00001,102,105,104,99.00001,98.00001,101,100,98.00001,97.00001,97.00001,96.00001,95,94,92,91,89,87,84,80,78,74,71,68,64,64,66,68,70,74,75,77,79,86,80,78,64,28,13,13,12,13,12,12,12,13,13,13,12,10,9,9,17,44,51,49,56,47,48,48,47,47,46,48,51,56,54,52,51,52,56,56,54,54,52,56,51,50,54,51,54,56,56,61,65,67,68,69,70,69,76,74,73,71,70,70,72,72,67,68,64,71,61,56,51,41,42,39,33,33,33,32,20,14,27,41,32,34,34,29,27,28,28,25,24,23,23,24,25,27,25,20,28,27,32,27,44,110,112,102,104,97.00001,92,91,94,87,90,92,90,91,91,91,94,93,94,101,103,107,115,120,128
32,32,32,32,32,32,32,32,32,32,32,32,32,32,32,32,33,33,33,33,33,33,33,33,33,33,33,33,33,33,33,33,33,33,33,33,33,33,33,33,33,33,33,33,33,33,33,33,33,33,33,33,33,33,33,33,33,33,33,33,33,33,33,33,32,32,32,32,32,32,32,32,32,32,32,32,32,32,32,32,32,32,27,27,24,34,29,71,80,66,78,95,113,116,107,52,30,31,30,29,24,24,23,27,25,28,33,89,148,140,145,151,156,156,174,191,193,191,184,179,171,161,152,134,100,54,45,56,74,93,94,90,80,57,43,38,34,39,42,42,39,66,43,48,86,92,116,131,132,126,110,41,19,27,23,27,25,25,27,38,66,98.00001,123,145,159,163,152,135,103,89,86,85,82,86,85,89,83,83,83,83,82,81,80,78,75,71,68,68,63,61,56,54,51,50,45,38,31,29,25,24,27,25,24,23,23,20,20,17,19,17,17,17,17,16,16,16,20,25,32,41,47,54,62,72,84,97.00001,108,116,126,133,139,147,154,156,160,163,165,167,166,166,166,166,166,166,166,166,166,168,166,167,168,169,170,172,174,176,177,178,180,182,185,185,185,186,186,186,186,187,187,187,187,186,186,186,185,185,183,183,183,184,184,184,186,188,190,194,197,202,207,209,212,212,213,213,212,209,206,206,205,205,206,207,209,210,213,211,211,211,210,207,202,196,194,191,188,186,188,190,191,195,200,203,205,209,211,212,215,217,218,215,211,205,204,204,204,204,205,205,204,203,200,194,187,178,161,132,114,83,49,36,41,36,39,38,42,38,49,63,65,71,80,92,98.00001,110,108,97.00001,99.00001,110,92,83,81,73,30,78,132,148,152,164,167,173,181,186,188,195,199,202,204,204,207,210,209,208,209,214,213,209,212,215,216,217,214,216,215,214,214,209,203,196,188,139,109,98.00001,97.00001,95,94,93,91,90,89,87,87,84,84,85,86,85,85,88,88,86,85,82,82,80,84,82,80,78,81,81,82,83,82,83,82,82,82,82,80,80,81,81,81,80,78,75,66,47,40,34,28,29,25,34,33,25,23,17,19,28,39,46,58,65,83,94,110,116,127,136,146,147,143,139,131,125,112,105,104,103,101,99.00001,95,95,92,90,93,90,87,87,87,88,88,87,80,78,73,67,60,59,54,50,46,45,43,41,35,33,29,25,23,21,17,16,14,13,13,12,10,12,9,15,40,54,47,47,46,45,45,48,50,50,50,50,51,51,49,49,50,50,49,47,48,48,48,47,43,40,38,36,43,41,40,39,43,40,36,33,38,34,29,23,16,8,12,4,10,10,5,4,3,2,1,1,1,1,0,0,1,1,1,0,0,24,36,30,33,32,30,30,28,28,28,28,28,25,25,27,25,24,23,24,25,28,28,35,94,114,98.00001,95,96.00001,89,98.00001,93,82,86,88,90,89,91,93,94,97.00001,98.00001,97.00001,103,113,123,130,142
32,32,32,32,32,32,32,32,32,32,32,32,32,32,32,32,33,33,33,33,33,33,33,33,33,33,33,33,33,33,33,33,33,33,33,33,33,33,33,33,33,33,33,33,33,33,33,33,33,33,33,33,33,33,33,33,33,33,33,33,33,33,33,33,32,32,32,32,32,32,32,32,32,32,32,32,32,32,32,32,32,32,28,27,27,35,29,82,94,74,63,81,97.00001,109,106,49,30,32,31,31,28,27,25,28,28,30,36,92,150,141,146,152,156,157,174,191,192,190,183,178,172,162,153,135,98.00001,50,50,62,83,100,93,90,80,47,32,43,46,42,38,40,43,64,40,46,84,87,100,109,102,86,81,43,23,31,25,22,24,23,25,39,71,89,112,129,132,121,101,93,87,84,86,85,85,77,71,79,83,84,83,88,82,81,80,77,74,71,68,68,63,61,56,54,54,50,45,38,33,30,27,25,28,27,24,23,23,21,21,19,20,19,19,19,16,16,16,17,20,24,31,39,46,54,58,66,78,92,104,115,124,132,139,146,154,158,160,163,165,166,166,166,166,166,166,166,166,166,166,166,165,166,167,168,168,171,173,175,176,178,180,182,185,185,185,186,186,186,186,187,187,187,187,186,186,186,185,185,183,183,183,184,185,186,186,188,190,194,198,202,207,210,212,212,213,212,212,209,206,205,205,205,206,207,209,210,212,211,211,210,209,205,200,194,193,189,187,186,188,190,193,197,201,204,208,211,212,215,216,217,218,214,210,205,204,204,204,204,204,204,206,202,199,189,181,170,146,123,86,54,40,35,38,35,35,36,41,39,52,68,68,78,83,95,102,116,115,102,103,113,92,83,81,73,29,77,130,147,151,157,167,178,185,184,190,195,200,201,202,204,205,205,205,207,208,211,212,214,217,214,212,214,213,216,216,214,215,210,203,196,186,138,108,98.00001,97.00001,95,93,91,91,90,87,87,87,85,85,85,86,87,87,89,87,86,83,82,81,78,80,78,77,76,80,81,82,82,82,82,82,82,82,82,80,80,81,82,82,80,77,75,62,48,40,34,30,31,28,30,33,23,23,19,17,27,36,44,44,44,46,50,52,54,57,61,70,78,89,97.00001,112,120,132,142,150,149,142,137,124,117,105,100,89,88,89,91,91,91,87,85,88,87,85,86,86,85,85,85,83,80,75,71,63,59,54,49,46,43,40,36,32,29,24,21,17,19,14,14,34,47,46,44,47,43,36,33,31,29,29,28,25,23,20,19,17,16,13,12,8,12,13,13,12,9,9,9,9,9,8,8,9,10,12,12,17,16,14,9,5,2,1,1,1,1,1,1,1,1,3,2,6,8,12,15,21,24,29,30,30,39,41,38,34,32,31,30,29,28,28,28,28,28,25,25,24,24,23,23,25,25,25,33,85,102,88,86,91,87,92,87,82,85,88,91,90,91,92,94,95,96.00001,96.00001,103,120,133,141,156
32,32,32,32,32,32,32,32,32,32,32,32,32,32,32,32,33,33,33,33,33,33,33,33,33,33,33,33,33,33,33,33,33,33,33,33,33,33,33,33,33,33,33,33,33,33,33,33,33,33,33,33,33,33,33,33,33,33,33,33,33,33,33,33,32,32,32,32,32,32,32,32,32,32,32,32,32,32,32,32,32,32,28,27,28,35,29,101,117,94,69,63,85,97.00001,94,51,31,32,31,31,31,29,29,32,32,33,40,94,151,143,148,154,158,158,174,191,192,190,183,178,173,163,155,136,98.00001,56,63,80,97.00001,94,89,88,69,34,43,91,103,66,30,31,39,57,52,72,94,86,87,94,110,108,90,43,32,28,23,15,14,14,27,47,71,82,87,83,71,74,76,76,73,72,66,66,68,82,107,112,120,119,94,87,82,81,79,77,74,71,68,68,65,62,58,57,54,50,45,40,33,30,27,25,29,27,24,23,23,21,21,19,20,20,20,19,16,16,16,17,20,25,31,38,45,50,56,65,76,89,101,112,121,130,137,144,151,155,158,160,163,165,166,166,166,166,166,166,166,166,166,166,165,166,167,168,168,171,173,174,176,178,180,182,185,185,185,186,186,186,186,187,187,187,187,187,186,186,186,185,185,185,185,184,186,187,187,189,191,195,200,204,208,211,213,213,213,212,212,209,205,205,205,205,206,207,210,212,211,211,211,210,208,203,200,194,191,187,186,187,189,190,195,198,203,205,209,212,215,216,217,218,218,214,210,205,204,205,208,209,210,210,208,203,196,186,175,159,135,107,64,32,33,35,34,34,35,36,38,39,54,71,70,79,84,95,104,115,115,100,100,111,92,83,82,73,30,77,130,147,157,157,165,173,182,186,194,194,201,198,195,193,183,176,168,167,164,159,155,161,166,162,173,189,211,214,213,213,215,210,203,196,186,139,108,98.00001,97.00001,95,93,91,91,90,87,87,87,85,85,85,86,86,89,88,86,85,83,81,81,80,80,77,77,76,81,82,82,82,82,82,82,82,82,82,80,80,82,83,83,81,78,76,65,49,41,34,34,31,28,25,27,19,22,19,15,23,35,41,44,43,44,45,48,49,54,54,54,54,54,54,51,49,52,59,65,74,88,97.00001,112,117,122,126,139,137,129,126,117,112,105,102,90,88,86,88,88,90,90,90,90,89,86,84,79,77,73,71,69,65,61,59,54,51,47,43,42,36,27,27,23,17,10,6,13,10,8,6,6,6,6,6,5,5,5,6,8,9,8,8,8,8,8,7,6,6,7,8,7,7,8,9,7,9,12,12,12,10,10,8,5,17,20,23,29,31,34,35,45,45,47,49,49,48,48,49,48,48,48,46,44,38,34,34,31,31,31,32,29,29,29,28,28,28,25,25,24,24,23,23,25,25,25,33,85,97.00001,88,86,89,87,85,84,85,86,88,93,89,91,89,89,89,90,92,102,157,182,188,199
32,32,32,32,32,32,32,32,32,32,32,32,32,32,32,32,33,33,33,33,33,33,33,33,33,33,33,33,33,33,33,33,33,33,33,33,33,33,33,33,33,33,33,33,33,33,33,33,33,33,33,33,33,33,33,33,33,33,33,33,33,33,33,33,32,32,32,32,32,32,32,32,32,32,32,32,32,32,32,32,32,32,28,27,30,35,28,111,140,122,92,67,83,101,95,48,34,32,32,32,33,32,32,34,34,36,41,96.00001,152,144,149,154,158,158,174,191,192,190,183,178,173,166,155,136,100,61,72,90,100,91,95,76,46,40,46,62,77,47,28,24,32,61,66,79,76,74,79,81,95,103,101,81,39,24,28,38,27,23,30,49,46,47,58,71,72,72,72,72,73,78,91,107,116,99.00001,69,51,44,84,122,92,83,81,79,76,74,71,68,68,65,63,59,59,54,51,47,40,33,30,28,27,30,28,27,23,23,22,21,21,20,20,20,19,19,16,16,16,21,25,29,36,43,49,56,61,73,84,98.00001,109,120,128,136,143,148,154,157,159,161,164,165,166,166,166,166,166,166,166,166,166,165,166,167,168,168,171,173,174,176,178,180,182,185,185,186,187,187,186,186,187,187,187,187,187,186,186,186,186,185,185,185,185,186,187,187,189,191,195,200,204,208,211,213,213,212,212,211,207,205,205,205,205,206,207,210,212,212,211,211,209,205,201,197,193,189,186,186,187,190,191,195,200,204,208,211,215,216,217,218,219,218,214,210,205,208,209,212,213,214,210,206,198,190,178,164,145,112,72,49,33,32,29,32,31,31,34,34,39,60,77,74,79,88,98.00001,106,117,115,99.00001,99.00001,108,93,83,82,73,30,77,130,147,151,157,170,173,180,188,172,159,143,138,129,123,118,119,125,129,134,146,159,162,173,177,168,159,211,212,212,211,215,210,203,196,186,139,109,98.00001,96.00001,95,93,91,91,90,87,87,87,85,86,87,85,88,89,87,86,85,82,81,84,82,82,81,82,81,83,85,82,82,82,82,82,82,82,82,80,81,83,84,84,82,78,77,69,51,41,34,34,25,25,24,19,12,16,20,15,22,34,39,41,36,36,40,44,45,45,46,45,45,46,48,49,48,48,48,50,51,54,56,58,58,54,57,62,69,80,89,109,120,135,142,145,142,136,132,120,111,98.00001,93,87,86,85,84,83,83,84,85,84,82,80,79,78,76,70,67,62,61,57,52,45,34,27,17,19,15,13,13,13,13,13,13,12,12,12,10,12,12,10,10,9,9,9,9,9,10,13,12,10,10,13,14,14,14,16,15,22,20,17,14,17,49,54,52,47,47,47,48,47,45,45,44,44,43,44,44,44,44,43,40,40,36,39,34,30,31,31,29,29,29,29,28,28,28,25,25,25,25,24,24,25,27,25,33,85,95,88,86,92,90,86,86,88,85,88,97.00001,91,91,91,89,88,90,93,105,161,192,183,179
33,33,33,33,33,33,33,33,33,33,33,33,33,33,33,33,33,33,33,33,33,33,33,33,33,33,33,33,33,33,33,33,33,33,33,33,33,33,33,33,33,33,33,33,33,33,33,33,33,33,33,33,33,33,33,33,33,33,33,33,33,33,33,33,32,32,32,32,32,32,32,32,32,32,32,32,32,32,32,32,33,33,29,29,24,36,33,100,145,142,114,87,76,137,133,69,36,32,32,32,31,31,29,32,35,39,42,96.00001,154,144,149,156,158,158,174,191,192,190,183,178,174,167,154,136,103,75,86,101,95,94,96.00001,59,20,28,35,45,42,50,45,22,13,39,36,30,28,24,30,30,29,39,46,44,40,46,57,52,35,28,27,31,28,32,50,64,70,76,92,117,115,107,82,54,32,17,17,25,29,19,101,114,84,82,79,76,75,72,69,69,66,63,59,59,54,51,47,41,34,32,29,28,30,29,27,23,23,22,21,21,20,20,20,19,19,16,16,16,23,25,29,35,42,49,54,61,71,82,93,105,117,124,132,140,145,151,154,157,159,162,164,166,166,166,166,166,166,166,166,166,165,166,167,168,168,171,173,174,176,178,180,182,185,185,186,187,187,187,187,187,187,187,187,187,187,187,187,186,186,186,186,186,186,188,188,190,193,196,201,205,208,211,213,213,212,212,211,207,205,204,204,205,206,209,211,212,211,212,211,209,203,198,194,191,187,184,187,188,189,193,196,201,204,208,211,216,216,219,219,221,217,212,212,212,212,215,216,215,212,207,200,192,184,171,154,128,86,43,38,34,32,28,30,32,34,39,36,46,69,86,80,85,91,105,109,120,115,99.00001,99.00001,113,93,82,83,73,32,77,130,147,149,159,164,176,180,190,137,125,159,166,175,177,181,182,182,183,190,188,184,182,178,174,164,160,206,212,213,214,215,210,203,196,187,141,109,97.00001,97.00001,93,94,92,91,90,87,87,87,85,86,87,86,89,88,86,86,83,81,80,85,83,84,83,85,84,84,85,83,82,82,82,82,82,82,82,81,82,84,85,85,83,79,78,67,51,41,34,30,19,17,19,17,14,15,19,20,23,31,36,38,35,35,36,38,39,39,40,42,43,41,41,43,46,46,43,46,47,48,49,49,49,49,49,51,52,52,54,54,56,56,56,68,74,86,94,109,119,127,133,144,144,137,131,118,109,97.00001,93,81,80,78,78,79,80,83,83,79,80,79,77,74,67,67,60,54,50,41,36,30,29,24,22,20,17,15,15,15,14,13,13,14,14,15,16,16,16,15,15,15,14,15,17,17,20,22,21,21,21,22,15,42,58,51,48,51,48,47,47,47,46,44,45,43,42,41,41,42,42,41,40,39,41,42,36,31,32,29,30,28,28,28,28,25,25,25,25,25,25,24,24,25,27,25,34,87,95,93,91,98.00001,93,90,88,88,88,90,99.00001,92,93,93,95,96.00001,93,99.00001,107,164,207,216,219
33,33,33,33,33,33,33,33,33,33,33,33,33,33,33,33,33,33,33,33,33,33,33,33,33,33,33,33,33,33,33,33,33,33,33,33,33,33,33,33,33,33,33,33,33,33,33,33,33,33,33,33,33,33,33,33,33,33,33,33,33,33,33,33,32,32,32,32,32,32,32,32,32,32,32,32,32,32,32,32,33,33,29,29,25,36,33,96.00001,139,152,136,115,84,145,188,110,42,34,32,32,32,31,29,32,35,38,41,95,152,144,148,154,158,158,174,191,194,191,184,180,173,167,154,135,106,82,92,102,91,91,100,114,126,129,126,129,127,138,117,76,61,60,43,40,38,32,31,28,30,40,52,54,59,67,58,38,20,25,33,46,56,58,76,92,120,120,92,51,25,15,16,29,32,30,33,43,40,29,68,125,84,82,79,76,75,72,69,69,65,63,59,59,54,51,48,41,35,33,30,29,31,30,28,24,23,22,21,21,21,20,20,20,19,16,16,19,21,24,28,32,39,47,54,60,67,76,87,101,112,122,130,138,143,148,153,156,158,160,163,165,166,166,166,166,166,166,166,166,165,166,167,168,168,171,173,174,176,178,180,182,185,185,186,187,187,187,187,190,189,188,187,187,187,187,187,187,187,187,187,188,187,188,188,190,193,196,201,205,209,212,213,213,212,212,211,206,204,204,204,205,206,209,211,213,209,212,211,208,202,196,191,189,186,186,187,189,190,194,198,203,205,209,215,218,221,223,222,219,215,212,210,214,215,216,216,214,212,203,196,187,177,160,134,102,59,34,33,30,30,28,28,30,34,35,33,48,75,93,86,89,94,108,113,122,116,99.00001,98.00001,113,93,82,83,72,32,76,128,147,154,160,163,171,179,188,131,131,160,167,174,175,179,182,184,185,186,185,180,178,177,175,161,150,206,211,211,210,215,210,203,196,187,141,109,97.00001,97.00001,95,93,91,91,90,87,87,87,85,85,87,88,88,87,87,85,82,81,82,83,84,84,84,87,85,85,84,83,82,82,82,82,82,82,82,82,83,85,86,86,84,80,79,67,52,44,38,31,21,16,17,19,12,15,21,17,19,28,35,39,35,35,36,36,38,36,38,40,43,40,39,41,43,43,41,41,41,43,44,47,47,46,46,44,44,47,50,54,54,56,56,54,56,59,58,61,63,64,64,70,79,88,96.00001,113,123,136,143,147,145,137,129,111,100,86,81,80,80,81,83,86,84,85,84,85,83,82,82,76,72,63,59,51,48,44,41,36,32,29,24,28,27,24,24,24,25,25,23,20,22,24,24,27,27,27,27,24,21,19,24,58,54,47,47,49,47,46,46,46,45,43,44,42,41,40,40,40,40,39,39,39,39,38,33,32,32,27,29,27,25,25,25,24,24,24,24,24,24,23,23,24,25,24,33,87,94,101,99.00001,104,93,91,93,90,91,92,101,94,93,95,95,102,103,111,122,170,211,219,222
33,33,33,33,33,33,33,33,33,33,33,33,33,33,33,33,33,33,33,33,33,33,33,33,33,33,33,33,33,33,33,33,33,33,33,33,33,33,33,33,33,33,33,33,33,33,33,33,33,33,33,33,33,33,33,33,33,33,33,33,33,33,33,33,32,32,32,32,32,32,32,32,32,32,32,32,32,32,32,32,33,33,29,29,28,36,34,88,132,144,148,128,106,128,182,107,44,35,32,32,31,31,29,32,33,35,39,93,148,141,148,154,158,158,174,191,195,192,186,181,173,168,154,135,106,92,100,98.00001,95,93,75,94,125,141,144,140,139,133,118,101,102,95,88,93,93,89,80,66,54,54,59,60,62,64,56,47,40,49,71,91,108,113,110,80,42,22,19,17,22,23,24,23,36,38,39,40,36,40,41,125,85,82,79,76,75,72,69,69,65,63,61,60,56,52,48,42,36,34,32,30,32,31,29,27,24,22,21,21,21,21,20,20,19,19,19,19,20,22,25,30,38,44,51,59,64,72,83,95,108,118,126,134,139,145,150,153,156,158,160,163,166,166,166,166,167,167,167,166,165,166,167,168,170,172,174,175,178,179,180,182,185,185,187,188,187,187,190,192,192,190,189,189,188,188,188,188,187,187,187,188,189,189,189,191,194,197,202,206,209,212,213,213,212,212,210,206,204,204,204,205,206,209,211,213,209,211,212,208,201,193,188,186,186,187,188,188,191,195,200,204,207,211,216,224,225,225,223,218,212,211,211,215,216,216,215,210,205,196,191,179,164,138,105,68,41,33,32,27,28,25,29,30,30,33,38,61,87,99.00001,87,89,100,110,119,124,113,94,95,113,94,82,83,72,33,73,124,147,152,156,167,172,183,189,132,128,157,165,174,177,179,179,177,178,173,168,163,164,163,156,152,154,210,212,212,210,215,210,203,196,187,142,110,97.00001,100,95,92,91,91,90,87,87,87,85,86,88,88,88,87,86,83,82,81,82,84,86,85,83,88,87,86,85,83,82,82,82,82,82,82,83,82,84,86,87,87,85,81,80,67,54,46,39,31,29,20,19,16,14,15,19,12,19,33,42,41,39,39,39,38,35,35,36,38,41,41,41,41,43,43,44,40,39,42,43,44,45,45,46,43,43,46,46,46,45,47,48,46,48,46,47,48,50,54,54,54,54,51,50,50,50,51,54,69,80,92,101,112,117,124,131,136,138,129,122,113,112,98.00001,90,83,82,79,78,79,81,83,85,83,80,76,74,71,68,64,62,54,50,44,42,39,39,35,33,31,31,32,34,32,32,31,30,28,24,27,46,61,52,47,46,47,47,46,46,46,45,43,43,42,40,39,39,39,39,39,39,34,39,33,33,32,29,27,30,25,24,24,24,23,23,23,23,23,23,22,23,24,25,24,34,88,93,104,99.00001,113,94,95,95,91,93,94,104,96.00001,97.00001,99.00001,100,105,108,108,120,172,213,220,223
32,32,32,32,32,32,32,33,33,33,33,33,33,33,33,33,33,33,33,33,33,33,33,33,33,33,33,33,33,33,33,33,34,34,34,34,34,34,34,34,34,34,34,34,34,34,34,34,33,33,33,33,33,33,33,33,33,33,33,33,33,33,33,33,32,32,32,32,32,32,32,32,32,32,32,32,32,32,32,32,34,34,29,29,28,36,34,82,131,133,136,142,128,115,141,81,43,33,29,28,30,28,28,31,32,34,39,93,146,140,148,155,158,158,174,191,196,193,187,182,173,169,154,135,103,93,101,93,97.00001,66,32,44,76,81,81,83,81,88,96.00001,89,84,83,82,79,69,60,59,58,57,57,54,58,59,49,47,65,92,120,120,91,56,23,7,20,23,19,27,24,21,20,20,24,30,41,44,41,34,30,39,121,83,81,79,76,75,72,68,68,65,62,60,60,56,52,48,42,36,34,32,30,32,31,29,27,24,22,22,21,21,20,19,19,17,17,17,19,20,22,23,28,33,40,47,56,61,68,76,88,103,113,124,131,136,142,147,152,154,157,159,162,166,166,166,166,167,167,167,166,165,166,167,168,170,172,174,175,178,179,180,182,185,185,186,187,187,190,192,193,192,192,192,190,190,190,189,188,187,187,187,187,188,189,189,191,193,197,201,206,209,212,213,213,212,212,210,205,204,203,203,205,206,208,210,212,210,210,211,207,198,190,184,184,186,187,188,189,193,197,202,208,209,214,222,227,227,225,219,215,211,211,214,216,216,215,211,206,198,191,184,169,146,112,76,43,39,34,32,27,23,19,28,28,28,30,39,67,94,104,88,93,109,119,127,131,114,91,93,113,95,83,83,72,33,71,125,147,157,157,165,168,183,190,146,130,144,147,153,155,160,161,167,174,176,183,188,191,201,206,208,209,214,217,214,212,214,209,203,196,187,141,108,97.00001,99.00001,95,91,90,91,90,87,87,87,85,86,88,88,87,87,85,82,81,81,82,84,85,84,82,87,88,88,86,84,83,83,82,83,83,84,85,85,85,87,88,87,84,82,80,69,58,46,33,27,32,23,17,14,12,15,19,17,31,43,41,40,38,38,39,38,36,36,39,42,41,41,41,41,43,43,44,40,39,38,39,40,42,44,44,43,42,42,42,40,40,41,43,44,43,43,45,46,45,45,47,44,45,46,47,47,47,46,47,52,58,59,58,52,49,49,54,62,72,85,95,118,134,138,145,152,146,132,122,104,95,82,76,81,81,81,81,82,82,82,81,79,77,75,75,73,70,63,60,56,54,49,47,45,43,42,39,35,31,40,69,58,48,45,42,45,46,45,45,45,43,42,42,41,40,38,38,38,38,38,38,35,41,35,33,32,28,28,27,24,24,24,23,23,23,23,23,23,23,21,23,23,25,23,34,85,95,106,96.00001,111,90,92,93,93,95,95,105,100,102,103,104,100,105,107,121,171,209,215,218
29,29,29,29,29,29,29,30,33,33,33,33,33,33,33,33,32,32,32,32,33,33,33,33,33,32,32,32,33,33,33,34,35,35,35,35,35,35,35,35,35,35,35,35,35,35,35,35,34,33,33,33,33,33,33,33,33,33,33,33,33,33,33,33,31,31,31,31,31,31,31,31,31,31,31,31,31,31,31,31,34,36,31,30,28,35,32,77,123,129,130,134,135,130,111,58,32,29,28,25,27,27,25,29,31,33,39,92,143,141,148,156,158,158,174,191,197,194,188,183,173,169,155,132,103,96.00001,94,100,83,39,47,68,86,88,89,89,90,90,88,86,84,76,62,57,58,58,54,51,54,48,54,62,89,106,117,105,77,43,19,6,16,20,24,23,22,20,19,21,24,17,23,22,33,39,35,34,30,25,29,108,80,80,78,76,74,71,67,67,64,61,59,59,56,54,49,42,36,34,32,32,32,31,29,28,24,23,23,22,21,20,19,17,16,16,16,17,19,19,21,23,27,30,41,46,56,62,70,81,96.00001,109,120,125,133,138,143,147,153,153,157,160,165,166,166,166,167,167,167,168,167,167,168,168,170,172,174,175,178,179,182,185,185,185,186,186,192,192,192,193,193,192,193,193,193,193,190,189,188,188,188,188,187,188,188,190,192,196,200,205,209,212,213,212,212,213,210,205,202,202,202,204,205,206,211,212,211,209,205,198,194,186,183,183,184,187,189,189,196,200,203,211,212,223,227,227,227,223,218,215,210,212,216,217,215,211,205,201,195,186,176,152,123,82,41,40,35,31,31,29,21,19,21,23,24,30,48,76,94,113,98.00001,104,118,123,126,130,119,94,91,112,98.00001,82,77,72,33,71,124,147,154,157,165,176,182,186,190,192,191,196,203,207,204,216,214,216,221,218,216,220,214,214,214,213,214,213,213,212,211,207,203,195,186,145,107,99.00001,96.00001,93,93,88,90,90,88,88,88,86,87,91,88,87,86,83,81,80,79,81,76,81,81,82,90,87,92,87,90,82,82,80,86,84,85,89,89,87,90,94,82,83,78,80,70,57,43,21,15,27,22,12,14,17,17,19,32,40,40,34,35,32,34,34,35,35,38,38,38,39,40,40,40,41,41,42,40,40,40,40,40,41,42,42,41,41,40,40,40,40,40,40,42,41,42,41,41,42,42,42,42,43,43,43,43,43,43,44,45,46,46,46,46,46,46,48,54,57,51,49,50,51,56,60,76,84,97.00001,105,121,128,136,143,145,144,134,128,113,105,92,86,78,77,77,79,81,82,79,78,80,75,70,72,71,68,64,61,59,51,64,65,51,46,44,38,43,44,43,43,41,41,40,40,39,38,36,36,36,35,35,35,34,34,33,32,30,28,28,27,24,25,24,23,24,24,23,23,22,22,20,21,22,23,23,23,70,94,102,97.00001,110,99.00001,94,93,93,93,95,106,102,97.00001,92,90,91,96.00001,104,114,173,196,189,197
28,28,28,28,28,28,28,29,32,33,33,33,33,33,33,33,32,32,32,32,33,33,33,33,33,32,32,32,33,33,33,33,34,35,35,35,35,35,35,35,35,35,35,35,35,35,35,35,34,33,33,33,33,33,33,33,33,33,33,33,33,33,33,33,31,30,30,30,30,30,30,30,30,30,30,30,30,30,30,31,34,33,29,25,25,33,31,78,116,127,132,132,135,113,86,43,34,28,27,24,24,23,24,28,30,33,38,91,142,141,149,156,158,158,174,191,198,194,189,184,178,168,157,127,109,95,95,97.00001,59,32,60,82,86,88,89,89,90,90,88,86,80,70,59,54,54,59,52,59,52,58,91,113,83,52,25,15,17,17,23,22,20,19,19,19,19,19,20,22,16,19,23,21,22,31,31,21,21,4,73,102,79,79,78,76,74,70,67,67,63,61,59,58,57,56,49,42,36,34,32,31,32,31,30,27,24,23,23,22,20,20,19,17,17,15,15,16,17,19,20,21,27,29,35,42,50,59,66,76,91,105,115,122,128,134,140,146,151,151,154,159,163,166,166,166,167,167,167,168,167,167,168,170,171,172,174,175,178,179,180,182,185,185,186,185,190,192,192,193,193,192,192,192,192,192,190,189,188,188,188,188,188,187,189,189,192,195,200,204,209,212,213,212,212,213,210,205,201,202,202,203,204,208,210,211,211,208,203,195,189,183,181,182,184,187,189,191,200,200,204,215,221,227,227,227,225,221,217,215,212,213,215,214,212,208,204,197,189,181,160,130,87,50,36,32,30,28,28,25,20,19,21,20,20,35,58,80,101,124,112,114,122,127,131,134,120,97.00001,91,111,96.00001,81,78,72,33,70,125,147,153,164,162,171,181,184,190,192,196,200,206,208,218,208,207,211,215,213,211,212,213,213,213,213,214,213,212,210,210,206,203,196,186,143,106,96.00001,94,93,90,88,90,90,86,88,86,86,85,87,89,87,86,80,80,79,78,80,78,80,81,82,88,88,96.00001,89,91,90,90,85,86,91,94,93,91,91,90,90,85,84,84,81,73,54,39,25,14,14,17,14,17,15,19,30,39,41,39,36,32,31,31,32,33,34,36,38,38,38,39,39,39,40,40,41,40,39,41,41,41,41,41,41,41,41,41,41,41,41,41,41,41,41,41,41,41,41,41,41,42,42,42,42,42,42,42,42,41,41,41,41,41,41,41,42,47,49,48,47,47,47,47,49,52,54,56,56,56,54,51,54,66,80,100,113,133,140,147,153,151,142,123,110,92,84,75,72,81,83,82,82,81,84,80,73,67,76,68,57,52,46,38,42,41,41,40,40,40,40,39,38,38,38,36,36,36,35,35,35,33,33,32,31,30,28,28,28,28,25,24,25,24,24,23,23,22,21,20,21,22,23,23,22,59,88,94,92,106,91,92,93,90,92,87,93,90,85,86,89,90,96.00001,103,112,162,188,139,129
28,28,28,28,28,28,28,29,31,32,32,32,32,32,32,32,31,31,31,31,32,32,32,32,32,31,31,31,32,32,32,32,33,34,34,34,34,34,34,34,34,34,34,34,34,34,34,34,33,33,33,33,33,33,33,33,33,33,33,33,33,33,33,33,31,30,30,30,30,30,30,30,30,30,30,30,30,30,30,31,31,30,29,22,24,28,29,74,127,124,111,83,58,54,79,71,36,30,27,23,23,22,24,28,30,33,36,90,142,141,150,158,158,158,174,191,199,197,190,186,179,170,158,129,109,102,102,82,40,44,73,87,86,88,89,89,90,90,88,87,79,72,65,60,54,54,61,69,74,107,62,20,9,23,30,31,30,25,19,22,16,17,19,19,20,22,23,22,16,21,22,21,32,29,16,14,29,85,110,80,79,79,78,76,74,70,67,67,63,61,59,58,58,57,50,43,38,35,33,32,31,31,28,27,23,22,22,22,20,20,20,19,17,17,15,16,17,19,20,21,23,24,32,39,49,58,65,75,86,99.00001,111,118,125,132,136,142,147,148,152,158,160,163,165,165,166,167,168,168,167,168,170,170,171,172,174,175,176,178,179,180,182,185,185,185,189,190,190,192,192,192,192,192,192,192,190,189,188,188,188,188,188,189,189,189,193,196,200,204,209,213,213,212,211,212,210,203,204,201,201,203,205,209,211,211,209,205,198,190,182,180,181,181,183,188,190,195,201,203,210,219,227,231,230,229,224,218,216,215,215,213,211,210,206,204,198,193,181,162,138,94,54,39,35,31,28,29,29,23,19,22,22,20,28,47,69,89,112,133,109,120,124,130,133,135,125,99.00001,92,110,92,79,77,71,33,67,127,146,147,160,163,173,180,183,189,191,198,201,205,207,205,208,207,210,211,215,215,216,214,214,214,214,213,213,211,209,209,205,202,196,186,145,106,97.00001,95,93,91,88,88,88,86,88,84,84,81,84,89,88,87,82,80,82,81,80,84,77,86,84,85,91,89,99.00001,97.00001,95,92,96.00001,94,97.00001,96.00001,92,92,109,94,92,95,82,88,82,72,57,35,25,13,10,17,17,16,15,24,34,38,35,36,34,29,29,29,30,32,34,34,35,36,36,38,38,38,39,39,39,38,36,38,38,38,38,38,38,38,38,38,38,38,38,38,38,38,38,38,38,38,38,38,39,38,39,39,39,39,39,39,38,39,38,38,38,38,38,38,40,42,44,44,44,44,43,41,42,42,44,45,46,46,46,45,45,47,48,45,44,45,49,56,62,72,82,98.00001,110,130,138,144,148,146,139,129,119,106,94,85,76,75,80,66,52,48,46,48,43,41,40,39,39,39,39,38,36,36,36,36,36,36,35,35,35,33,33,32,30,29,29,29,29,29,28,25,25,25,25,24,24,22,21,22,22,22,23,23,22,57,86,93,96.00001,108,89,92,93,95,95,88,94,93,87,93,101,96.00001,99.00001,102,108,160,198,182,158
28,28,28,28,28,28,28,28,30,31,31,31,31,31,31,31,30,30,30,30,31,31,31,31,31,31,31,31,30,31,31,31,32,33,33,33,33,33,33,33,33,33,33,33,33,33,33,33,33,33,33,33,33,33,33,33,33,32,32,32,32,32,32,32,30,30,30,30,30,30,30,30,30,30,30,30,30,30,30,30,31,32,30,24,23,27,33,73,100,66,51,65,101,142,158,97.00001,38,31,27,23,23,23,24,29,30,33,36,90,141,141,150,158,158,158,174,191,199,197,191,186,176,173,157,135,104,103,103,65,38,57,82,87,86,88,89,89,90,90,88,87,83,79,72,68,67,60,77,83,118,51,16,24,40,39,32,34,35,27,22,19,22,22,22,22,23,23,25,25,22,21,15,20,16,25,62,97.00001,112,98.00001,83,80,79,79,78,76,74,70,67,67,63,61,59,58,59,56,51,44,39,35,33,32,30,30,27,25,23,21,21,21,21,19,19,19,19,17,17,17,19,20,21,21,22,23,30,35,46,54,62,70,80,94,106,114,121,127,133,139,145,146,149,157,158,162,165,165,166,167,169,169,169,168,170,170,171,172,174,175,175,176,176,179,180,182,185,186,187,189,190,190,192,192,192,192,193,190,190,189,189,189,189,189,188,190,190,190,194,196,201,204,209,213,213,211,211,211,209,203,202,200,201,203,208,210,211,210,208,203,195,187,180,179,180,181,182,189,193,197,208,212,219,230,232,231,230,227,222,217,215,214,215,212,209,205,203,198,193,184,171,142,105,60,36,35,27,30,25,24,24,21,16,19,16,16,35,61,81,98.00001,119,136,117,126,129,133,135,135,126,100,92,110,90,79,76,71,34,67,126,145,153,155,161,170,179,183,188,191,198,199,202,204,203,202,210,207,212,216,214,210,214,214,214,214,213,212,210,208,207,203,201,194,187,147,107,99.00001,96.00001,93,91,88,81,86,86,88,80,80,78,83,88,87,87,82,79,81,82,80,84,85,81,90,89,86,65,86,106,115,117,118,124,128,141,149,152,156,161,158,152,100,87,82,68,59,36,21,10,23,22,16,16,23,32,34,31,31,32,30,28,27,27,28,31,32,32,33,33,34,35,35,35,36,36,36,35,34,34,34,34,34,34,34,34,34,34,34,34,34,34,34,34,34,34,34,34,34,34,34,35,36,36,36,36,36,36,35,34,34,34,34,34,34,34,35,38,39,35,34,34,34,35,35,35,34,38,38,39,39,38,36,35,36,38,40,44,44,43,42,45,49,50,50,50,52,56,62,66,85,106,119,135,148,151,149,134,81,45,56,48,41,44,43,40,39,39,39,36,35,35,35,34,35,35,34,34,33,33,33,33,32,30,29,29,30,30,28,25,25,25,25,24,24,24,24,24,24,24,23,23,23,24,23,54,79,91,99.00001,108,87,88,90,90,86,81,93,93,86,90,100,101,104,106,108,166,179,184,197
28,28,28,28,28,28,28,28,30,30,30,30,30,30,30,30,28,28,28,28,30,30,30,30,30,30,30,30,30,30,30,30,31,32,32,32,32,32,32,32,32,32,32,32,32,32,32,32,33,33,33,33,33,33,33,33,31,30,30,30,30,30,30,30,30,30,30,30,30,30,30,30,30,30,30,30,30,30,30,30,34,28,23,23,25,31,24,44,48,75,106,126,135,139,145,79,38,32,29,24,25,25,29,32,31,33,35,88,139,139,149,157,158,158,174,191,199,197,193,187,178,172,157,134,108,114,89,39,43,74,81,86,86,88,89,89,90,90,89,88,87,86,82,80,76,76,84,101,107,21,30,32,36,39,43,45,33,27,23,25,20,22,25,23,25,30,24,13,5,19,38,69,97.00001,114,104,93,79,79,79,79,80,78,78,76,74,70,67,67,64,62,60,59,58,57,50,43,38,35,32,32,30,30,28,24,22,21,20,20,20,20,20,20,20,20,19,19,19,21,21,20,21,21,23,30,42,48,56,66,75,85,98.00001,108,116,123,129,133,139,141,147,153,157,161,165,166,167,168,170,171,171,170,170,171,171,172,173,174,174,175,176,178,179,180,182,185,187,188,189,192,192,192,193,193,193,193,192,190,190,190,189,189,189,189,190,192,194,196,201,204,209,212,213,211,210,210,207,205,200,200,202,203,208,210,210,208,205,197,189,182,180,179,181,181,183,189,196,205,219,225,227,232,233,231,230,225,221,217,215,215,214,210,205,203,199,195,187,171,144,108,61,36,33,25,23,23,22,21,17,17,15,16,17,27,47,68,80,100,123,140,116,128,138,142,145,146,127,98.00001,88,109,90,79,75,71,40,60,125,140,153,153,167,169,175,186,183,190,192,188,190,191,185,184,189,184,184,184,183,181,212,212,212,212,211,210,209,207,206,201,198,192,184,145,105,95,94,91,87,86,77,84,84,86,78,80,78,82,86,87,86,83,82,83,81,81,81,86,87,85,95,51,51,56,139,171,166,170,180,187,192,189,181,180,177,177,167,111,90,85,72,58,35,15,15,22,19,20,27,33,35,31,30,29,28,27,25,25,25,28,30,31,32,32,33,33,34,34,34,35,35,35,33,33,33,33,33,33,33,33,34,34,34,34,34,34,34,34,34,34,34,34,34,34,34,34,33,33,33,33,33,33,33,33,33,33,33,33,33,33,34,34,34,34,31,30,30,30,32,35,36,38,38,38,35,34,33,32,34,32,32,34,36,40,40,39,38,40,42,44,46,47,46,47,47,42,42,42,45,42,52,62,70,52,40,40,42,43,40,40,38,38,35,34,34,33,33,34,34,34,33,32,32,31,31,31,32,30,29,29,30,30,28,25,25,25,25,24,24,24,24,23,24,24,23,23,22,22,21,21,48,74,91,100,106,91,91,91,99.00001,97.00001,94,82,76,78,82,86,89,90,104,102,152,179,176,179
28,28,28,28,28,28,28,28,29,29,29,29,29,29,29,29,27,27,27,27,29,29,29,29,29,29,29,29,29,29,29,29,30,31,31,31,31,31,31,31,31,31,31,31,31,31,31,31,33,33,33,33,33,33,33,32,30,29,29,29,29,29,29,30,30,30,30,30,30,30,30,30,30,30,30,30,30,30,30,30,30,30,25,23,20,27,31,60,102,121,122,126,129,124,134,72,36,32,30,28,29,29,30,33,33,33,34,86,136,137,147,156,158,158,174,191,198,197,193,186,178,172,157,135,116,116,60,30,56,83,83,86,87,88,89,89,89,89,88,88,88,86,82,80,77,77,84,98.00001,109,23,28,38,34,38,40,41,39,27,19,25,23,25,24,25,17,9,27,56,96.00001,113,110,89,81,83,77,80,79,79,79,79,79,78,77,76,74,70,67,67,64,62,60,59,57,54,49,42,36,32,31,30,31,29,27,25,21,20,19,20,21,21,21,20,20,20,19,19,20,20,20,21,21,20,22,27,36,41,47,59,67,79,91,103,112,121,125,129,135,139,144,151,155,160,166,168,169,170,172,173,172,171,171,170,172,173,173,173,175,175,176,180,180,182,185,188,189,190,192,192,193,194,195,195,195,195,194,193,193,192,192,190,192,190,190,192,194,199,202,207,209,211,212,211,209,209,206,203,199,198,201,205,208,209,208,205,197,193,184,177,179,180,182,186,191,200,210,217,226,230,232,237,233,230,226,223,219,216,215,214,212,207,203,200,196,190,174,149,111,67,39,34,31,23,22,21,20,17,15,16,19,17,23,41,50,67,83,105,123,143,122,135,141,144,147,149,127,95,85,108,89,78,72,72,40,60,125,140,133,132,141,137,133,141,148,166,180,159,162,163,169,169,155,171,164,167,172,174,210,210,210,210,209,209,207,205,205,199,197,191,184,145,103,95,94,91,86,84,81,85,84,85,81,85,83,83,85,83,86,86,87,82,72,70,77,72,74,81,85,85,90,86,146,186,187,189,191,188,184,185,175,181,181,175,169,112,91,83,73,56,36,23,19,19,21,24,34,35,30,28,29,28,25,24,24,25,27,28,30,31,32,32,31,30,32,32,32,33,33,32,32,31,31,31,31,31,31,31,32,32,32,32,32,32,32,32,32,32,32,32,32,32,32,32,32,31,31,31,31,31,31,32,32,32,32,32,32,32,32,32,32,32,31,31,30,30,30,31,33,34,34,34,34,34,34,32,30,30,33,34,35,35,35,35,29,31,34,35,36,36,39,41,32,38,42,43,39,41,38,36,35,40,42,35,35,39,35,40,35,33,33,32,32,32,32,32,31,31,31,30,30,30,29,29,29,30,30,30,30,28,25,24,24,24,24,24,23,23,23,24,25,25,23,22,22,20,19,19,41,69,88,92,99.00001,93,96.00001,92,95,102,104,95,93,87,88,90,109,105,103,107,126,150,153,160
28,28,28,28,28,28,28,29,28,28,28,28,28,28,28,28,25,25,25,25,28,28,28,28,28,28,28,28,28,28,28,28,29,30,30,30,30,30,30,30,30,30,30,30,30,30,30,31,32,33,33,33,33,33,33,32,30,29,29,29,29,29,29,30,30,30,30,30,30,30,30,30,30,30,30,30,30,30,30,30,29,28,25,20,17,24,24,68,116,121,121,123,128,126,127,67,35,31,30,29,29,28,28,32,30,32,32,84,135,137,147,157,158,158,174,191,197,197,193,186,178,173,159,139,124,87,32,34,71,84,82,86,88,89,89,90,89,88,87,88,88,88,84,82,77,80,86,95,115,36,24,35,31,32,32,33,31,27,24,22,17,14,19,49,95,134,155,147,109,83,75,79,77,77,77,78,79,79,79,79,78,78,77,76,74,70,67,67,64,62,60,59,54,52,46,41,35,31,30,29,31,30,27,25,21,20,19,20,21,21,21,20,20,20,20,20,20,21,20,21,21,20,21,23,27,33,40,50,61,70,81,95,105,115,121,126,131,136,140,147,154,159,165,169,172,173,174,175,174,173,171,171,171,172,173,174,175,175,178,181,182,185,188,190,192,192,193,194,195,196,197,197,197,197,196,196,196,195,194,192,192,192,193,193,194,197,202,208,209,210,211,211,209,207,205,201,198,198,201,205,207,208,204,201,193,188,182,179,182,184,189,194,207,212,221,223,231,234,237,237,232,227,222,219,219,216,215,211,208,205,201,200,194,181,155,118,71,35,36,34,24,22,15,17,15,14,13,14,17,19,32,51,62,72,91,110,128,151,128,136,142,146,149,149,128,92,79,104,86,77,71,69,40,60,124,140,109,111,115,126,130,132,148,179,183,162,172,160,174,194,181,184,171,177,189,195,208,209,209,207,208,207,207,205,203,198,197,191,184,147,103,94,94,89,85,84,84,85,84,81,80,83,81,81,81,79,82,87,86,70,57,63,56,58,59,61,69,93,88,100,151,179,171,174,174,169,169,177,183,177,167,164,168,110,89,81,69,49,38,34,24,22,30,33,34,31,29,28,28,27,24,25,27,28,28,28,30,31,33,32,30,28,29,29,29,31,31,30,30,30,30,30,30,30,30,30,31,31,31,31,31,31,31,31,31,31,31,31,31,31,31,30,29,28,28,28,28,28,28,29,32,31,31,31,31,31,31,30,30,30,30,30,30,28,28,29,30,30,31,31,31,31,31,32,31,32,34,34,34,33,34,35,34,32,31,32,34,36,35,34,32,29,30,32,34,30,34,39,35,30,31,32,29,31,31,29,32,31,31,31,31,30,30,30,29,29,29,27,27,27,25,27,28,29,30,30,28,25,24,24,23,24,24,23,23,23,23,23,24,24,23,22,20,19,17,17,32,63,77,84,96.00001,91,93,91,90,89,91,100,101,81,83,89,108,106,93,96.00001,95,95,99.00001,116
28,28,28,28,28,28,29,29,28,28,28,28,28,28,28,28,25,25,25,25,28,28,28,28,28,28,28,28,29,29,29,28,29,29,29,29,29,29,29,29,29,29,29,29,29,29,29,30,31,32,32,32,32,32,32,32,30,30,30,30,30,30,30,30,29,30,30,30,30,30,30,30,30,30,30,30,30,30,30,29,31,28,22,20,22,30,16,67,117,118,117,124,124,125,125,67,35,31,31,29,29,25,28,28,30,30,32,83,134,137,147,157,158,157,174,191,197,197,193,185,177,172,161,141,120,54,25,47,79,84,86,87,88,88,89,89,89,88,88,88,89,88,84,82,79,80,86,93,118,47,23,25,27,29,28,28,25,20,20,28,63,109,163,192,207,194,163,128,96.00001,80,81,80,79,77,79,81,79,79,79,79,78,78,77,76,74,71,67,67,65,63,60,59,54,52,46,39,33,32,30,28,31,29,27,24,20,19,19,19,20,21,21,21,22,21,19,20,21,20,20,20,20,19,19,21,23,28,33,43,56,64,74,88,100,110,116,120,126,133,139,145,154,159,165,171,173,175,177,177,176,174,174,172,171,171,172,173,175,176,180,183,185,188,190,193,194,193,196,196,197,197,199,199,200,200,200,200,199,197,196,194,193,193,193,194,195,199,203,208,207,209,210,209,206,205,202,199,196,198,203,205,207,205,202,198,193,188,182,180,187,193,204,216,219,222,224,226,236,239,236,234,231,224,218,218,218,215,215,211,205,199,198,193,182,159,122,79,39,30,31,30,22,17,22,16,19,17,14,15,16,21,39,59,68,83,103,121,134,157,130,136,144,149,149,150,129,90,76,102,87,76,70,69,40,59,121,137,101,125,121,127,159,171,174,186,187,165,164,189,197,204,206,205,199,202,206,209,206,208,207,204,205,204,204,201,199,195,194,187,177,141,100,92,91,88,82,82,81,82,81,76,75,76,77,76,77,78,82,88,88,69,62,81,57,60,61,60,64,81,48,66,137,173,170,171,175,169,172,181,179,176,162,156,167,109,87,80,65,41,33,34,20,23,34,30,32,31,31,31,27,25,29,25,27,28,28,28,29,31,31,31,28,27,28,28,28,31,31,29,30,30,30,30,30,30,30,30,31,31,31,31,31,31,31,31,31,31,31,31,31,31,31,30,27,25,25,25,25,25,28,28,30,30,30,30,30,30,30,29,29,30,28,28,28,28,28,27,28,28,28,28,27,27,27,29,31,32,32,32,31,31,30,30,31,29,27,27,28,30,30,30,28,31,31,29,29,32,34,33,28,33,30,29,31,29,28,29,30,30,30,29,29,28,28,28,27,27,27,27,27,24,24,25,28,29,29,28,27,25,24,24,23,24,24,24,23,23,23,23,22,22,22,21,20,19,19,17,31,64,74,88,103,90,90,92,93,91,86,93,111,96.00001,96.00001,86,82,87,91,92,91,94,102,114
28,28,28,28,28,29,29,30,30,30,30,30,30,30,30,29,29,29,29,27,29,29,29,29,29,29,29,29,30,30,30,30,29,29,29,29,29,29,29,29,29,29,29,29,29,29,29,29,30,30,30,30,30,30,30,30,31,31,31,31,31,31,31,30,30,30,30,30,30,30,30,30,30,30,30,30,30,30,30,30,30,30,25,22,22,25,25,68,117,117,118,119,121,121,95,54,34,30,25,22,23,25,28,29,30,33,32,83,129,137,147,156,158,158,172,188,196,196,192,184,177,172,162,143,120,44,30,54,82,90,88,88,89,89,89,90,90,89,87,87,86,87,83,81,79,81,81,81,117,73,21,24,21,19,14,21,47,84,137,169,196,198,202,205,196,184,156,127,97.00001,80,78,79,80,80,79,80,80,79,78,78,78,77,77,76,74,71,69,69,67,65,62,61,54,54,46,40,34,32,30,29,27,25,23,22,19,17,17,17,20,21,20,20,20,20,17,19,20,20,19,19,19,17,19,19,19,23,30,36,49,59,66,77,91,102,110,117,121,129,139,148,155,160,166,171,174,176,176,176,175,176,176,175,173,173,175,175,173,176,180,183,190,192,193,194,193,194,195,197,197,199,201,202,201,203,204,204,201,197,195,192,189,190,193,194,197,202,203,206,206,207,208,208,206,203,200,198,197,200,204,207,207,204,200,197,193,190,186,188,198,211,219,221,223,226,229,232,238,238,236,232,232,226,221,221,219,216,214,207,203,196,193,181,158,127,81,34,31,28,23,21,21,19,19,17,14,12,16,15,12,30,50,69,79,97.00001,112,127,147,155,128,133,147,150,150,148,129,87,77,102,88,76,69,71,41,59,114,130,127,143,149,155,173,176,183,186,191,193,197,198,204,204,204,204,205,207,208,208,207,206,204,203,208,205,201,199,192,187,180,172,159,121,97.00001,91,86,81,73,73,75,76,76,75,72,75,78,80,83,84,86,86,84,82,52,56,54,54,66,62,57,54,72,65,129,177,165,162,167,158,166,179,179,174,164,156,157,101,85,80,66,44,27,25,27,28,30,30,29,28,29,28,28,27,27,28,29,29,29,29,29,29,30,29,30,29,29,30,30,30,30,31,30,30,30,30,30,30,30,30,30,30,30,30,30,30,30,30,29,29,29,29,29,29,29,28,28,27,27,25,25,27,27,27,29,28,28,28,28,28,27,27,28,29,29,29,27,27,27,27,27,25,25,25,25,25,25,27,29,30,29,29,29,28,28,27,27,28,28,28,27,27,27,28,27,28,28,28,28,28,28,28,29,30,31,29,28,28,28,29,30,30,29,28,28,27,27,27,28,29,29,27,27,25,25,27,29,30,28,27,24,24,21,20,20,19,17,17,16,16,14,14,12,12,12,12,13,13,12,12,22,67,72,91,109,99.00001,96.00001,97.00001,98.00001,98.00001,95,91,128,104,100,88,54,60,89,80,87,88,95,110
28,28,28,28,28,29,29,30,30,30,30,30,30,30,30,30,29,29,29,28,29,29,29,29,29,29,29,29,30,30,30,30,29,29,29,29,29,29,29,29,29,29,29,29,29,29,29,29,29,29,29,29,29,29,29,30,31,31,31,31,31,31,31,31,30,29,29,29,29,29,29,29,29,29,29,29,29,29,29,30,31,30,27,22,22,28,28,67,118,118,117,124,123,111,83,47,31,28,25,22,23,24,25,29,30,32,33,82,129,137,147,155,158,157,171,188,194,196,192,184,177,173,163,145,124,47,36,57,82,90,88,88,89,89,89,90,90,89,89,87,88,87,82,82,81,81,82,82,88,114,65,22,22,47,96.00001,137,168,175,180,195,194,198,201,199,193,182,154,125,95,79,78,79,80,80,80,80,80,79,78,78,78,77,77,76,74,71,70,70,68,65,63,61,57,54,47,40,34,33,32,30,29,27,24,22,21,19,17,19,19,20,19,19,19,19,17,17,19,20,19,19,19,17,19,19,19,22,27,33,44,54,62,72,84,97.00001,106,113,121,130,138,145,153,160,166,169,173,175,176,178,177,176,176,176,176,176,177,178,177,180,183,186,190,192,193,193,192,194,195,199,200,201,202,203,204,204,203,202,201,197,195,194,194,194,194,196,200,204,203,206,206,206,206,206,202,201,199,197,198,201,205,208,207,204,200,197,194,194,196,202,215,223,224,223,226,229,232,237,238,237,234,231,227,223,223,225,220,215,212,203,197,190,183,159,128,80,33,31,28,24,20,20,19,17,17,16,13,14,14,15,23,43,65,81,90,105,121,134,145,154,127,130,147,151,149,147,131,91,79,100,87,77,67,63,36,54,109,127,140,149,152,155,166,169,175,178,187,187,188,188,193,192,191,190,191,189,184,181,172,166,155,149,133,124,108,96.00001,79,72,64,56,47,62,89,91,86,78,72,75,79,81,85,83,81,82,83,83,87,84,87,84,87,91,82,90,89,77,74,70,87,82,91,86,129,157,121,121,146,154,166,181,177,173,168,161,160,102,81,68,49,30,25,30,30,30,31,30,27,25,28,28,28,28,28,28,29,29,29,29,29,29,29,29,30,30,30,31,31,31,31,30,31,30,30,30,30,30,30,30,30,30,30,30,30,30,30,30,29,28,28,28,28,28,28,28,27,27,27,27,27,27,28,27,28,25,25,27,25,25,25,25,27,28,27,27,25,27,27,25,25,25,25,25,23,23,23,24,27,28,28,28,27,27,24,24,27,25,25,25,25,25,24,27,29,30,29,27,27,29,29,30,30,31,29,29,28,27,27,27,27,27,27,25,24,23,23,23,20,20,20,19,17,17,16,17,20,19,17,16,14,13,10,10,10,9,9,9,9,9,8,8,7,5,5,5,7,8,8,7,16,68,72,83,98.00001,97.00001,94,98.00001,95,97.00001,93,85,104,97.00001,93,91,82,78,87,77,79,82,90,104
29,29,28,28,28,29,29,30,30,30,30,30,30,30,30,30,29,29,29,28,29,29,29,29,29,29,29,29,30,30,30,30,29,29,29,29,29,29,29,29,29,29,29,29,29,29,29,29,29,29,29,29,29,29,29,30,31,31,31,31,31,31,31,31,30,29,29,29,29,29,29,29,29,29,29,29,29,29,29,30,31,31,27,22,22,28,28,66,116,118,118,121,124,107,76,48,30,27,24,22,22,23,25,27,29,32,30,82,128,139,147,154,158,157,171,188,194,196,192,187,181,176,166,148,129,48,42,58,82,90,88,88,89,89,89,90,90,90,89,89,89,88,84,82,82,82,83,82,94,97.00001,125,159,153,133,132,136,158,173,177,188,193,196,196,192,190,179,154,125,95,79,78,79,80,80,80,80,80,79,78,78,78,77,77,76,74,71,70,70,68,65,63,61,58,54,48,41,38,36,33,31,29,29,27,24,22,21,19,19,20,21,20,19,19,19,19,20,19,20,20,19,19,17,19,19,19,22,23,29,39,47,56,67,78,90,99.00001,107,118,128,135,143,150,157,162,168,171,175,176,177,180,177,177,179,179,180,180,180,180,183,186,188,190,192,193,193,194,195,199,201,202,202,202,203,204,203,202,202,200,197,196,196,196,196,196,200,202,204,204,206,207,207,206,204,201,200,199,198,201,204,209,209,207,204,202,202,201,203,211,218,225,226,225,226,229,232,237,237,237,236,233,229,223,220,218,215,212,208,205,199,192,183,166,134,83,38,27,27,27,23,20,19,17,17,17,15,16,16,13,16,34,54,73,89,102,112,124,133,144,154,127,128,146,151,149,148,136,90,77,100,87,77,65,61,42,59,101,118,130,135,144,148,148,145,141,137,124,118,110,105,93,86,73,67,61,58,52,48,42,40,35,32,36,34,31,30,31,32,34,35,38,56,85,86,85,83,79,78,84,85,85,82,80,82,86,86,87,84,88,85,84,90,88,88,93,85,83,84,84,79,84,84,117,161,158,157,165,161,153,149,142,139,132,127,112,82,65,46,34,27,30,35,34,31,30,29,28,28,28,28,28,28,28,28,29,29,29,29,29,29,29,29,30,30,30,31,31,31,31,30,31,30,30,30,30,30,30,30,30,30,30,30,29,29,29,28,29,28,28,28,28,28,28,28,27,27,27,25,25,27,27,27,25,25,25,24,24,24,24,24,24,25,25,25,25,23,23,23,25,25,25,25,23,23,23,24,25,27,27,27,24,24,24,24,27,28,28,25,25,25,25,27,27,25,23,22,21,22,23,23,24,23,21,20,16,15,13,13,15,15,15,14,14,12,12,13,14,15,15,15,13,12,12,13,14,15,14,13,10,9,8,8,8,8,8,9,9,9,9,8,7,6,5,5,7,8,8,8,14,76,85,90,90,94,92,109,108,110,102,90,90,92,80,85,86,74,72,69,68,71,76,88
29,29,28,28,28,29,29,30,30,30,30,30,30,30,30,30,29,29,29,29,28,29,29,29,29,29,29,29,30,30,30,30,29,29,29,29,29,29,29,29,29,29,29,29,29,29,29,29,29,29,29,29,29,29,29,30,31,31,31,31,31,31,31,31,30,29,29,29,29,29,29,29,29,29,29,29,29,29,29,30,30,30,27,22,22,29,29,65,116,119,122,121,114,91,69,47,30,27,24,22,22,23,24,27,28,30,30,81,128,139,147,155,158,157,171,188,189,192,192,189,183,179,169,150,127,46,42,58,82,90,88,88,89,89,89,90,90,90,89,89,89,88,86,84,84,83,83,88,98.00001,109,148,189,152,120,115,139,161,172,176,190,197,198,195,190,188,177,153,125,95,79,78,79,80,80,80,80,80,79,78,78,78,77,77,76,74,71,70,70,68,65,63,61,59,56,49,42,38,36,34,32,31,30,29,27,24,22,21,22,23,24,23,21,20,20,20,21,22,21,20,20,19,19,17,19,19,22,22,25,36,43,51,62,73,83,92,101,112,124,131,139,146,154,161,166,169,173,175,177,180,177,177,180,181,182,182,183,184,186,186,188,189,192,193,193,196,199,201,202,202,203,205,205,204,202,201,200,197,196,196,197,199,199,200,202,204,206,207,207,207,207,204,203,202,201,201,201,207,211,214,212,210,208,208,210,212,214,221,225,224,223,224,227,232,237,237,238,237,236,233,229,224,224,220,216,211,205,200,196,188,167,137,85,39,27,27,20,23,22,19,17,17,17,17,15,15,14,7,21,46,65,80,95,103,116,124,134,142,154,125,126,145,152,150,149,132,80,63,93,77,71,62,52,46,54,67,71,70,64,61,58,50,49,44,40,35,31,27,27,25,25,24,24,27,29,29,29,28,27,29,29,29,28,25,24,24,25,27,29,32,54,83,84,79,78,78,79,82,83,83,83,81,83,85,83,86,83,88,88,90,97.00001,96.00001,94,95,97.00001,99.00001,101,99.00001,90,86,88,89,109,99.00001,96.00001,99.00001,97.00001,89,87,83,78,68,61,46,33,35,32,31,30,33,36,33,31,30,29,28,27,27,27,27,27,27,27,28,28,28,28,28,28,28,29,30,31,31,31,31,31,31,30,29,28,28,28,28,28,28,28,28,28,28,28,29,29,29,28,29,28,28,28,28,27,27,27,27,27,25,25,25,25,27,27,27,27,27,27,25,25,25,25,25,27,27,27,25,25,25,25,25,23,23,23,23,22,22,22,21,22,22,21,20,20,17,17,17,17,16,16,15,15,16,17,19,19,16,15,14,14,14,14,14,15,13,13,13,13,13,14,16,17,16,16,15,14,14,14,15,15,15,15,13,12,12,13,13,14,13,10,9,9,8,8,9,9,9,9,9,9,9,8,6,5,5,5,7,8,7,10,17,60,64,81,84,91,84,101,103,106,96.00001,81,85,90,84,86,82,68,63,64,63,63,63,74
30,29,29,28,28,28,29,29,30,30,30,30,30,30,30,30,29,29,29,29,29,29,29,29,29,29,29,29,30,30,30,30,29,29,29,29,29,29,29,29,29,29,29,29,29,29,29,29,29,29,29,29,29,29,29,30,31,31,31,31,31,31,31,31,30,29,29,29,29,29,29,29,29,29,29,29,29,29,29,30,30,30,28,22,22,30,30,62,114,121,122,117,100,79,66,43,29,25,24,22,23,23,23,25,27,28,28,78,127,137,149,157,158,157,171,188,188,187,192,191,191,192,174,145,122,49,43,57,82,90,88,88,89,89,89,89,90,90,90,90,90,89,86,85,82,93,93,92,113,177,175,178,179,140,115,137,161,174,181,192,197,198,196,191,184,176,154,124,95,79,78,79,80,80,80,80,80,79,78,78,78,77,77,76,75,72,71,71,69,66,64,62,59,57,51,44,39,38,34,32,31,31,30,29,25,24,22,22,23,24,23,21,20,20,20,21,22,21,20,19,19,19,19,19,19,19,20,23,32,38,45,54,67,75,84,93,104,118,127,136,142,150,157,162,167,171,175,177,179,177,177,180,182,183,183,185,185,185,187,189,190,192,193,193,198,199,200,202,206,205,202,203,203,201,200,197,196,195,196,197,199,201,202,204,206,207,208,210,209,209,207,207,207,207,208,210,215,217,216,214,211,211,215,217,221,222,224,225,223,225,229,231,238,238,237,237,237,236,232,229,224,220,216,207,202,198,198,193,173,138,83,38,24,25,19,22,21,19,17,17,17,17,17,16,14,13,9,32,59,72,83,96.00001,111,121,128,138,141,153,122,124,146,154,152,150,135,65,46,89,79,66,60,49,43,40,41,41,39,36,32,29,27,27,24,21,19,17,15,14,19,19,17,17,17,17,19,19,20,16,16,16,15,15,16,17,19,19,19,21,28,48,80,82,79,79,81,83,84,86,86,86,85,87,87,86,87,85,85,83,82,83,81,76,67,57,54,51,41,32,47,64,63,52,40,34,25,25,17,15,15,17,12,8,9,17,25,30,34,34,33,32,32,31,31,31,29,28,28,28,28,28,28,28,28,28,28,28,28,28,28,28,29,29,29,29,29,29,29,28,28,28,28,28,28,28,28,28,28,28,28,28,28,28,28,28,27,27,27,27,25,25,25,25,25,25,23,23,23,23,23,25,24,25,23,23,23,23,22,22,21,21,21,21,20,20,20,20,17,17,16,16,16,16,15,16,16,16,15,15,15,15,15,15,15,16,15,15,15,15,15,15,16,17,16,16,15,15,13,14,14,14,14,15,15,17,17,16,16,16,15,15,13,13,13,13,15,14,14,14,13,13,12,12,10,10,10,9,9,8,8,10,12,12,12,12,10,10,10,8,7,6,6,6,8,10,8,12,27,48,69,118,126,126,112,125,124,117,102,78,87,85,77,83,65,57,56,57,54,54,51,51
30,30,29,28,28,28,29,29,30,30,30,30,30,30,30,30,29,29,29,29,29,29,29,29,29,29,29,29,30,30,30,30,29,29,29,29,29,29,29,29,29,29,29,29,29,29,29,29,29,29,29,29,29,29,29,30,31,31,31,31,31,31,31,31,30,29,29,29,29,29,29,29,29,29,29,29,29,29,29,30,30,30,28,22,22,30,31,62,114,123,122,108,84,66,58,38,29,27,25,23,23,24,24,25,25,28,27,77,126,137,149,158,159,157,170,187,188,190,195,197,201,196,173,144,121,50,42,57,82,89,87,87,89,89,89,89,90,90,89,89,89,88,86,85,90,95,93,119,189,210,176,163,179,150,115,139,162,174,181,193,198,199,197,191,184,176,154,124,95,79,78,79,79,80,80,80,79,79,78,78,78,77,76,75,74,72,71,70,69,66,64,62,60,57,51,44,39,38,34,32,32,32,31,30,27,24,23,23,24,24,24,23,21,20,20,21,22,21,21,20,19,19,19,19,19,19,20,22,29,36,40,48,62,70,79,89,99.00001,112,124,132,138,146,154,160,164,168,173,176,177,176,177,180,181,183,184,185,185,186,187,188,189,190,192,192,197,198,200,201,202,202,200,201,202,200,199,197,195,196,197,197,201,203,204,206,208,209,211,211,211,211,210,210,210,211,213,214,220,221,219,217,216,216,221,223,224,225,225,225,226,229,232,237,238,238,237,238,236,234,232,229,222,216,209,202,198,195,194,177,137,85,33,25,28,20,21,20,19,19,17,17,17,16,17,17,20,14,17,41,64,76,87,100,115,123,133,141,144,154,122,124,147,155,153,151,136,67,46,89,72,60,57,48,40,35,34,32,27,23,19,15,13,13,12,9,9,10,8,8,10,9,9,9,9,10,12,13,12,10,9,10,14,14,13,13,14,16,20,22,20,39,71,77,78,76,74,78,81,79,74,70,58,54,45,38,25,24,15,7,2,1,1,0,1,0,0,0,0,19,42,54,56,34,17,12,12,16,16,15,17,23,23,23,28,31,38,35,34,32,31,31,32,31,31,30,29,28,28,28,28,28,28,27,27,25,25,25,25,25,25,25,25,25,25,25,25,24,25,25,25,24,27,27,27,27,27,27,28,28,28,28,28,28,28,27,24,23,23,23,22,22,22,21,20,19,17,17,17,17,17,17,17,16,16,15,15,15,16,15,17,16,16,16,16,16,16,16,15,15,15,15,15,14,14,14,15,16,16,15,15,15,14,15,15,16,16,16,13,15,15,15,16,17,17,17,16,16,14,15,15,15,15,15,15,14,14,15,16,16,15,15,14,13,13,13,16,14,14,14,13,13,13,13,13,13,13,13,10,10,10,13,13,14,14,13,12,12,10,9,8,8,8,9,10,12,12,14,38,46,63,122,126,120,111,121,122,103,103,65,66,65,57,64,52,48,54,49,47,45,44,44
31,30,29,29,29,29,29,29,30,30,30,30,30,30,30,30,29,29,29,30,30,30,29,29,29,29,29,29,30,30,30,30,29,29,29,29,29,29,29,29,29,29,29,29,29,29,29,29,29,29,29,29,29,29,29,30,31,31,31,31,31,31,31,31,30,29,29,29,29,29,29,29,29,29,29,29,29,29,29,30,30,30,28,23,22,31,31,60,114,122,114,95,74,52,43,35,30,27,25,24,24,24,24,25,25,27,25,76,126,137,149,158,161,158,170,184,189,191,200,207,211,202,174,146,117,56,42,56,79,87,87,87,89,89,89,89,90,90,89,89,89,88,86,85,91,95,112,186,224,186,168,176,130,143,120,140,162,174,181,193,200,201,198,193,184,175,154,123,95,79,78,79,79,80,80,80,79,79,78,78,78,77,76,75,74,72,71,70,69,66,64,62,60,57,51,45,39,38,34,32,33,32,31,30,29,25,24,23,25,25,24,24,23,21,21,22,22,22,21,21,20,19,19,17,17,17,19,20,27,31,34,43,52,64,74,82,92,103,117,126,132,141,148,155,160,166,170,174,177,176,177,180,181,183,186,186,186,186,187,188,188,190,192,192,194,195,198,200,201,201,199,199,199,199,199,196,199,200,201,202,202,204,206,208,210,213,214,216,215,215,215,215,216,216,217,219,221,221,221,219,219,221,224,225,225,225,225,225,230,233,239,241,238,238,238,238,236,233,231,224,224,209,200,196,195,195,181,138,82,32,24,28,22,22,21,17,17,17,17,17,16,15,16,15,19,16,31,51,67,81,97.00001,110,121,128,138,144,148,157,124,126,149,157,155,154,139,68,46,87,79,65,57,44,39,32,31,29,23,21,16,13,13,12,8,8,10,12,9,7,7,5,5,5,5,7,8,9,8,7,6,6,8,9,10,12,13,15,15,17,16,32,48,43,35,36,28,22,9,9,5,4,1,1,1,0,1,2,2,2,2,0,2,1,1,2,1,0,16,42,51,49,45,27,15,16,17,20,20,22,30,33,40,42,42,40,36,35,32,31,31,31,31,30,30,30,29,29,29,29,29,29,29,28,25,24,24,24,24,24,25,25,25,25,25,25,25,24,24,24,23,22,22,22,22,22,22,21,20,19,19,19,19,19,19,17,15,14,14,14,13,13,13,13,13,13,12,10,10,12,12,14,14,14,14,14,13,13,14,15,16,15,15,15,15,15,15,15,15,14,14,14,14,13,13,12,13,14,12,14,14,14,14,14,15,16,16,16,15,15,15,15,16,17,16,14,14,16,14,15,15,17,17,17,17,17,17,17,19,17,17,16,15,15,14,15,16,16,16,15,14,14,13,13,13,13,13,14,13,13,10,12,13,13,12,12,10,10,10,9,8,7,6,7,9,10,9,12,32,36,51,115,119,113,108,107,101,83,89,57,54,62,67,62,43,40,41,36,34,33,32,32
31,30,29,29,29,29,29,29,29,29,30,30,30,30,30,30,29,29,29,30,30,30,29,29,29,29,29,29,30,30,30,30,30,30,30,30,30,30,30,30,29,29,29,29,29,29,29,29,29,29,29,29,29,29,29,30,31,31,31,31,31,31,31,31,30,30,30,30,30,30,30,30,30,30,30,30,30,30,30,30,30,30,28,23,22,31,31,60,115,118,102,79,64,46,40,36,30,27,25,23,25,27,25,27,24,25,24,76,126,137,149,157,160,158,170,185,192,194,205,219,214,203,177,151,117,56,41,54,79,86,84,85,89,90,90,89,90,90,89,89,88,89,88,86,88,117,183,220,197,176,174,122,103,146,118,137,162,174,181,193,201,202,200,193,185,175,154,123,96.00001,80,79,79,78,79,79,80,79,79,77,77,77,76,75,75,73,72,71,70,69,66,64,63,61,58,52,46,41,40,38,34,34,33,33,31,30,28,25,25,25,25,24,24,24,23,22,22,22,22,21,21,20,19,17,17,17,17,19,20,24,28,30,35,43,57,66,75,87,98.00001,110,119,126,136,143,151,156,162,168,173,176,177,178,180,181,182,185,186,186,185,186,188,188,190,191,192,191,193,196,199,200,200,198,198,198,198,198,199,202,203,203,205,205,206,207,209,212,214,216,217,218,220,220,221,221,221,221,221,221,221,220,221,222,223,225,225,225,225,226,227,236,237,238,238,237,237,237,237,235,232,229,220,213,196,195,197,193,182,143,77,25,27,24,21,22,17,20,20,20,19,16,15,15,14,15,14,16,25,51,70,80,95,106,117,124,133,141,146,148,158,125,126,149,157,156,155,138,67,46,86,72,60,56,45,39,32,29,28,23,21,17,14,13,12,10,10,12,12,10,8,7,7,7,5,5,6,8,8,9,8,7,7,9,9,12,12,13,15,20,23,16,20,25,25,29,32,29,31,31,30,30,29,24,24,20,13,14,13,12,15,15,8,14,9,14,12,12,25,45,46,47,47,30,17,16,22,29,24,30,36,42,42,45,46,42,39,36,34,30,30,30,30,30,29,29,29,29,29,29,29,29,29,28,27,24,22,22,22,22,22,22,21,21,21,19,17,17,17,17,16,16,15,15,15,15,15,15,14,14,14,13,13,13,13,13,12,12,10,10,10,9,9,10,12,12,12,14,12,12,14,14,15,15,15,15,15,14,14,14,14,15,16,16,16,16,16,16,16,14,15,15,15,15,14,13,13,15,16,15,15,15,15,15,15,16,16,16,16,16,15,15,16,16,17,16,16,16,16,17,17,17,19,17,17,17,19,20,20,19,19,19,19,19,19,17,17,17,17,16,15,14,14,13,13,13,13,13,14,14,14,13,13,14,15,13,13,13,13,13,13,12,10,10,12,12,13,13,14,28,41,42,86,65,52,50,49,45,30,29,22,24,41,66,47,7,8,8,7,5,5,4,4
30,30,30,29,29,29,29,30,29,29,29,29,29,29,29,29,30,30,30,30,30,30,30,30,29,29,29,29,29,29,29,30,31,32,32,32,32,32,32,31,31,30,30,30,30,30,30,30,30,30,30,30,29,29,29,30,31,31,32,32,32,32,32,32,31,31,31,31,31,31,31,32,31,31,31,30,30,31,31,31,31,30,27,23,22,30,31,61,115,110,86,72,60,34,51,40,28,27,25,23,23,24,25,23,24,25,24,67,125,135,148,156,158,158,168,187,195,197,207,223,219,202,182,151,115,56,38,54,75,84,89,85,90,91,91,90,91,94,88,87,89,90,91,84,104,189,225,201,176,177,126,95,101,139,114,136,160,173,180,192,201,210,204,193,186,176,154,124,100,84,79,80,78,77,78,77,77,77,76,75,75,74,73,73,72,71,70,69,69,66,64,63,63,61,56,48,44,43,41,38,36,35,34,32,32,31,28,27,28,27,27,25,25,24,23,23,23,22,22,21,20,19,17,17,17,17,17,16,20,22,24,29,39,49,61,66,82,91,101,111,117,126,136,146,155,161,167,174,175,179,178,179,180,180,184,185,185,184,185,187,188,189,190,191,191,192,194,194,195,195,196,197,196,197,198,202,203,203,204,206,207,209,210,211,214,218,220,222,220,223,224,222,221,220,221,221,220,220,221,222,224,224,224,224,226,226,231,238,236,235,235,235,235,235,236,238,233,232,228,214,198,181,193,195,175,131,67,22,23,23,21,23,22,22,21,21,25,22,15,16,15,14,12,8,19,43,60,77,89,101,108,121,130,139,142,144,147,157,125,125,145,154,155,155,136,66,44,79,73,61,52,47,40,33,30,29,23,21,17,16,16,15,13,12,13,13,10,8,9,9,8,6,7,8,12,13,12,12,10,10,13,12,12,13,13,15,14,15,16,19,21,21,23,24,25,27,28,29,29,30,31,32,31,33,36,36,35,34,34,34,33,33,31,30,34,41,47,50,47,33,15,15,17,23,31,36,45,47,46,44,43,42,41,39,38,36,32,30,29,29,29,28,27,24,23,22,22,22,21,21,20,19,17,15,15,15,16,16,16,16,16,16,16,16,16,16,16,15,15,15,15,15,15,15,15,15,16,16,17,17,17,17,17,15,14,14,14,14,14,14,14,14,17,19,17,19,19,17,17,19,17,17,17,17,17,17,17,16,17,17,17,17,17,17,17,17,17,17,17,17,17,17,16,16,17,19,19,19,17,17,17,17,17,17,17,17,17,17,17,19,17,17,17,17,17,17,17,17,17,19,20,21,21,21,22,21,14,14,19,21,23,24,23,23,21,17,16,15,14,14,14,14,14,15,15,15,14,14,13,13,13,14,14,14,12,12,10,12,12,12,12,13,14,15,15,17,21,23,20,19,16,15,14,14,15,16,15,15,13,49,56,21,15,15,12,12,10,9,8,8
30,30,30,30,30,30,30,30,29,29,29,29,29,29,29,29,30,30,30,30,30,30,30,30,29,29,29,29,29,29,29,30,32,32,32,32,32,32,32,32,31,30,30,30,30,30,30,30,30,30,30,30,29,29,29,30,32,32,32,32,32,32,32,32,31,31,31,31,31,31,31,32,31,31,31,30,30,31,31,31,31,31,27,23,22,30,31,59,107,96.00001,77,68,54,32,54,47,29,27,24,24,23,23,24,28,24,25,24,68,125,135,148,155,156,158,168,187,195,197,205,218,217,202,178,148,115,61,35,48,76,83,87,86,90,91,91,90,91,86,90,94,90,93,93,92,177,234,199,176,172,118,96.00001,96.00001,100,137,111,135,160,173,180,192,202,211,206,194,187,176,154,124,101,85,80,80,78,77,78,77,77,77,76,75,75,73,72,72,72,71,70,69,69,66,64,64,63,62,57,50,47,45,43,40,39,38,35,34,33,32,30,28,28,29,28,27,27,27,25,23,23,22,22,21,20,19,17,19,17,17,17,15,17,19,22,25,33,44,54,61,76,85,96.00001,105,112,122,132,140,148,157,165,171,174,177,178,179,179,181,183,184,184,185,185,186,187,188,190,191,191,192,193,194,195,195,196,196,194,196,199,202,203,203,205,207,209,209,212,214,216,219,221,221,223,223,223,221,218,218,220,223,222,222,223,224,225,225,227,227,233,234,234,235,235,234,234,234,235,235,235,235,232,234,218,194,186,187,194,173,124,69,30,22,22,20,21,21,21,21,20,21,24,19,15,15,14,13,9,7,29,49,67,80,95,108,113,126,137,141,143,144,146,158,126,124,145,153,156,156,136,67,44,77,71,60,52,47,40,32,29,27,23,21,17,16,17,16,15,14,14,12,10,9,10,9,8,7,8,10,12,13,14,14,16,15,14,13,13,13,13,15,15,16,17,20,21,22,23,23,25,24,24,24,25,25,27,28,29,32,36,39,40,42,46,49,51,51,49,48,50,51,46,43,31,22,20,23,30,33,41,42,42,40,39,38,38,36,34,34,34,32,22,21,20,20,20,17,16,16,17,17,17,17,17,17,17,16,14,15,15,15,15,16,16,16,17,17,17,17,17,17,17,16,17,16,16,16,16,16,16,16,17,17,19,19,19,19,19,16,16,15,15,15,15,15,15,16,20,21,21,21,21,21,21,21,19,19,19,19,19,19,19,19,17,17,17,17,17,17,17,19,19,19,19,19,19,19,19,20,20,21,20,20,20,17,17,20,17,17,17,17,17,17,17,17,17,17,17,17,17,17,17,19,20,21,23,25,25,25,22,21,17,17,21,23,25,27,27,25,21,17,17,17,16,16,16,16,16,16,16,15,15,15,14,14,14,14,14,13,13,13,12,12,12,12,12,12,12,12,13,16,19,20,17,15,13,13,12,12,14,14,14,14,14,42,38,12,12,10,8,8,8,8,7,6
30,30,30,30,30,30,30,30,29,29,29,29,29,29,29,29,30,30,30,30,30,30,30,30,29,29,29,29,29,29,29,30,32,32,32,32,32,32,32,32,31,30,30,30,30,30,30,30,30,30,30,30,29,29,29,30,32,32,32,32,32,32,32,32,31,31,31,31,31,31,31,32,31,31,31,30,30,31,31,31,31,31,27,23,22,30,29,54,93,83,74,66,42,35,74,66,32,24,21,25,25,28,28,29,30,30,31,74,126,134,148,154,156,157,168,188,195,196,198,205,208,199,178,152,121,76,41,50,79,82,85,86,88,89,91,91,90,90,94,89,99.00001,96.00001,91,103,211,211,175,180,130,87,95,97.00001,100,137,111,135,160,173,180,192,203,213,209,196,187,175,153,124,101,85,80,80,78,77,78,77,77,76,75,75,73,73,72,72,71,71,70,69,68,66,64,64,63,63,58,50,47,45,43,41,39,38,35,34,33,33,31,31,28,29,29,28,27,27,25,25,23,23,22,22,21,20,20,19,19,19,17,17,17,19,20,23,28,39,47,52,67,76,89,103,107,117,126,134,143,152,161,168,172,174,177,179,180,181,183,184,184,185,186,187,188,188,190,192,192,192,193,194,195,195,195,196,196,196,200,202,202,203,206,208,210,213,215,217,220,221,222,223,224,223,222,220,218,218,220,223,225,225,227,227,228,229,231,232,239,240,238,236,235,235,234,235,236,235,236,237,224,213,192,187,192,192,170,121,71,42,35,24,20,19,20,20,20,20,19,19,19,15,15,12,13,12,10,13,33,51,73,84,101,112,120,131,141,142,143,144,147,158,126,124,145,153,156,156,138,67,44,76,67,57,49,45,38,31,25,22,21,20,15,15,16,16,15,13,14,12,10,8,8,8,7,7,8,10,12,13,14,14,14,14,13,12,12,12,12,13,13,15,15,19,19,20,21,22,22,22,22,22,20,21,20,21,24,28,30,32,32,32,35,39,42,42,40,39,38,35,34,32,27,24,32,33,36,35,34,33,33,32,30,29,28,27,25,25,25,23,20,19,19,19,17,16,15,14,14,14,14,14,14,14,14,14,14,13,15,15,15,16,16,16,17,17,17,17,17,17,17,16,17,16,16,16,16,16,16,16,17,17,19,19,19,19,19,17,16,16,16,16,16,16,16,16,20,21,21,21,21,21,21,21,19,19,19,19,19,19,19,19,17,17,17,17,17,17,17,19,19,19,19,19,19,19,19,19,20,20,17,17,17,17,17,17,17,17,17,17,17,17,17,17,20,20,20,20,20,20,20,20,20,22,23,24,24,25,24,23,21,21,21,23,27,28,29,28,23,20,20,20,19,19,16,16,16,16,16,16,16,16,15,15,14,14,14,14,14,13,13,13,12,12,12,12,12,10,10,12,14,14,12,10,10,10,10,12,13,13,13,13,16,27,13,7,10,9,8,8,9,10,8,6
30,30,30,30,30,30,30,30,29,29,29,29,29,29,29,29,30,30,30,30,30,30,30,30,29,29,29,29,29,29,29,30,32,32,32,32,32,32,32,32,31,30,30,30,30,30,30,30,30,30,30,30,29,29,29,30,32,32,32,32,32,32,32,32,31,31,31,31,31,31,31,32,31,31,31,30,30,31,31,31,31,31,28,23,22,29,28,54,80,75,70,57,30,47,107,76,34,24,21,27,31,40,44,43,39,40,39,80,127,135,147,154,157,157,169,188,195,196,195,198,193,194,176,147,124,99.00001,60,58,80,81,84,85,87,88,90,90,88,90,91,98.00001,97.00001,90,116,106,192,182,182,135,84,93,94,95,99.00001,137,111,135,160,172,179,192,205,215,210,197,187,175,152,123,101,85,80,79,78,77,76,77,77,76,75,75,73,73,72,71,71,70,69,68,68,66,64,62,63,63,59,51,47,45,44,41,40,38,35,34,33,33,32,31,29,29,29,29,28,27,27,27,25,23,22,22,21,21,20,20,20,20,19,17,17,17,19,20,25,33,40,44,57,68,80,94,103,112,122,129,137,146,158,165,170,173,175,178,180,182,183,184,184,185,186,187,187,188,191,192,192,192,193,194,195,195,195,195,196,196,201,203,203,205,207,209,212,213,216,219,221,221,221,221,221,222,222,221,220,221,223,227,229,229,229,229,230,232,234,235,237,242,240,236,237,235,235,235,235,236,236,226,198,184,187,197,192,159,109,68,49,43,38,22,20,19,19,20,19,17,17,16,16,15,15,12,12,10,10,15,33,56,74,90,109,118,128,140,143,144,143,144,147,158,126,124,145,153,156,156,141,68,44,75,66,56,49,44,38,30,24,21,20,19,15,14,15,15,13,13,14,12,9,8,7,7,6,6,7,9,10,12,13,13,13,13,10,9,9,9,9,9,9,10,13,14,14,14,15,15,17,15,14,12,9,8,9,10,13,17,21,21,21,22,25,29,32,33,27,30,33,29,30,31,31,33,31,31,31,30,31,33,33,32,28,27,25,23,23,22,22,21,20,19,19,17,17,16,15,14,14,14,14,14,16,16,16,15,15,15,15,15,16,16,16,16,17,17,17,17,17,17,17,16,17,16,16,16,16,16,16,16,17,17,19,19,19,19,19,17,17,17,17,17,17,17,17,17,20,21,21,21,21,21,21,21,19,19,19,19,19,19,19,19,19,19,19,19,19,19,19,20,20,20,20,20,20,20,20,20,20,20,20,20,20,20,20,20,20,20,20,20,20,20,20,20,20,20,20,20,20,20,21,21,24,25,28,29,29,28,27,28,28,27,25,25,28,28,25,21,22,19,19,19,17,17,17,17,17,17,17,17,17,17,15,15,14,14,14,13,13,13,13,13,13,13,13,13,10,10,10,12,8,9,8,7,7,7,7,7,8,9,9,9,13,17,4,8,10,9,8,6,12,10,9,7
