19.42383,22.66113,28.51318,31.875,37.60254,42.83203,48.80859,53.29102,62.75391,68.73047,81.18164,86.16211,96.12305,99.60938,110.5664,112.0605,120.5273,128.4961,147.4219,160.3711,173.3203,186.2695,202.207,210.1758,214.1602,226.1133,239.0625,253.0078,0.6225586,1.213989,3.128357,3.673096,5.167236,6.692505,7.844238,9.400635,12.2644,13.94531,16.56006,17.92969,22.66113,25.5249,32.37305,38.34961,46.31836,49.55566,57.02637,63.75,63.75,74.20898,78.69141,89.64844,106.582,119.5313,137.4609,157.3828,168.3398,180.293,188.2617,200.2148,210.1758,218.1445,237.0703,0.1556396,0.7781982,1.431885,2.801514,4.51355,5.41626,7.532959,9.089355,11.1438,13.44727,16.56006,18.92578,26.64551,29.88281,36.1084,40.59082,48.80859,51.29883,62.75391,66.73828,76.69922,81.18164,90.64453,94.62891,101.1035,106.582,108.0762,0,0,0,0,0,0,0,206.1914,166.3477,140.4492,136.4648,140.4492,145.4297,154.3945,164.3555,180.293,200.2148,226.1133,239.0625,0.3112793,0.7781982,1.540833,0,0,0,0,0,0,0,0,0,0,0,0,0,0,154.3945,150.4102,147.4219,147.4219,147.4219,152.4023,155.3906,159.375,162.3633,168.3398,173.3203,178.3008,182.2852,184.2773,188.2617,186.2695,184.2773,182.2852,178.3008,177.3047,175.3125,173.3203,168.3398,162.3633,150.4102,137.4609,126.5039,118.0371,109.0723,104.0918,98.61328,94.62891,92.13867,89.64844,87.1582,84.66797,83.67188,83.67188,82.17773,81.18164,81.18164,81.18164,82.17773,82.17773,83.67188,83.67188,83.67188,84.66797,87.1582,88.65234,90.64453,93.63281,97.11914,98.61328,99.60938,102.5977,104.0918,105.0879,108.0762,109.0723,112.0605,112.0605,113.5547,113.5547,115.0488,115.0488,116.543,118.0371,119.5313,120.5273,120.5273,120.5273,122.5195,120.5273,120.5273,120.5273,122.5195,122.5195,123.5156,123.5156,125.5078,125.5078,123.5156,125.5078,126.5039,129.4922,131.4844,134.4727,137.4609,140.4492,144.4336,147.4219,152.4023,155.3906,157.3828,164.3555,169.3359,175.3125,186.2695,196.2305,202.207,210.1758,218.1445,214.1602,200.2148,210.1758,208.1836,226.1133,255,1.213989,3.673096,8.466797,13.94531,18.92578,21.54053,22.66113,24.27979,24.27979,24.90234,26.02295,27.26807,29.88281,34.61426,43.82813,0,1.431885,1.789856,1.665344,1.789856,1.789856,1.914368,2.178955,6.16333,15.19043,27.26807,31.875,30.38086,25.5249,29.13574,27.89063,23.15918,0,0,0,0,0,0,128.4961,110.5664,104.0918,98.61328,92.13867,82.17773,83.67188,83.67188,82.17773,80.18555,89.64844,87.1582,73.21289,0,0,0,154.3945,125.5078,99.60938,0,0,0,0,0,1.665344,2.47467,5.41626,9.400635,18.42773,28.51318,46.31836,62.75391,0,105.0879,136.4648,149.4141,157.3828,169.3359,188.2617,204.1992,0,0,0,0,14.69238,17.92969,24.90234,32.37305,39.84375,44.5752,67.73438,86.16211,106.582,144.4336,173.3203,208.1836,0,1.914368,4.731445,14.69238,23.15918,38.34961,46.31836,58.76953,57.02637,75.70313,96.12305,97.11914,97.11914,94.62891,84.66797,60.76172,42.83203,28.51318,16.56006,7.844238,4.949341,3.486328,0.4669189,0,200.2148,159.375,122.5195,105.0879,74.20898,0,42.83203,26.02295,17.92969,9.400635,4.731445,1.322937,0,196.2305,162.3633,142.4414,126.5039,122.5195,132.4805,162.3633,182.2852,231.0938,251.0156,0.3112793,1.540833,4.51355,1.120605,0,0,0,231.0938,182.2852,150.4102,0,0,0,0,0,0,0,0,0,0,0,0,0,0,0,0,0,0,0,0,0,0,0,0,0,0,0,0,0,0,0,0,0,0,0,0,99.60938,89.64844,74.20898,57.77344,37.60254,23.15918,13.07373,5.41626,1.789856,0.1556396,218.1445,188.2617,164.3555,140.4492,115.0488,75.70313,48.80859,36.85547,23.15918,13.44727,7.252808,6.16333,3.128357,0.8560181,233.0859,202.207,154.3945,105.0879,75.70313,60.76172,38.34961,19.92188,11.51733,6.972656,3.315125,1.120605,255,239.0625,198.2227,173.3203,147.4219,120.5273,92.13867,66.73828,42.08496,31.12793,19.92188,9.089355,0,2.334595,0.4669189,243.0469,210.1758,175.3125,139.4531,102.5977,81.18164,64.74609,49.55566,31.875,24.27979,11.89087,5.665283,1.914368,0.07781982,228.1055,190.2539,175.3125,142.4414,128.4961,94.62891,72.2168,56.03027,49.55566,33.12012,27.26807,22.03857,12.7002,4.949341,3.486328,1.120605,253.0078,237.0703,226.1133,0,0,0,0,0,0,0,0,0,0,0,0,0,0,0,0,0,0,0,0,0,0,0,0,0,0,0,0,0,0,0,0,0,0,0
19.42383,22.66113,27.89063,33.12012,35.36133,39.84375,46.31836,49.55566,60.76172,66.73828,76.69922,82.17773,93.63281,97.11914,108.0762,109.0723,120.5273,123.5156,140.4492,152.4023,166.3477,178.3008,196.2305,200.2148,212.168,228.1055,239.0625,249.0234,0.8560181,1.540833,2.801514,3.890991,5.41626,6.412354,7.532959,9.400635,11.51733,13.94531,15.19043,19.42383,21.04248,25.5249,29.88281,34.61426,42.08496,47.8125,50.55176,63.75,65.74219,70.22461,74.20898,87.1582,104.0918,120.5273,132.4805,147.4219,171.3281,177.3047,184.2773,200.2148,210.1758,220.1367,235.0781,255,0.4669189,1.213989,2.038879,3.890991,4.51355,6.972656,8.778076,10.77026,11.89087,15.56396,19.42383,23.15918,29.13574,34.61426,36.1084,46.31836,47.8125,57.02637,64.74609,74.20898,82.17773,89.64844,97.11914,104.0918,109.0723,0,0,0,0,0,0,0,0,200.2148,162.3633,140.4492,137.4609,142.4414,149.4141,157.3828,169.3359,186.2695,200.2148,231.0938,245.0391,0.07781982,0.5447388,1.789856,1.914368,4.731445,0,0,0,0,0,0,0,0,0,0,0,0,157.3828,152.4023,147.4219,149.4141,147.4219,152.4023,157.3828,162.3633,166.3477,173.3203,177.3047,178.3008,182.2852,182.2852,184.2773,182.2852,180.293,178.3008,175.3125,173.3203,171.3281,169.3359,166.3477,159.375,149.4141,136.4648,123.5156,115.0488,108.0762,102.5977,98.61328,96.12305,92.13867,90.64453,88.65234,87.1582,84.66797,84.66797,83.67188,81.18164,82.17773,82.17773,83.67188,83.67188,84.66797,84.66797,84.66797,86.16211,88.65234,88.65234,92.13867,94.62891,97.11914,99.60938,102.5977,104.0918,106.582,108.0762,110.5664,110.5664,112.0605,113.5547,113.5547,113.5547,115.0488,115.0488,116.543,118.0371,119.5313,120.5273,122.5195,123.5156,123.5156,122.5195,122.5195,120.5273,120.5273,122.5195,123.5156,123.5156,123.5156,125.5078,123.5156,125.5078,126.5039,129.4922,131.4844,134.4727,139.4531,142.4414,144.4336,147.4219,150.4102,154.3945,155.3906,160.3711,166.3477,169.3359,175.3125,177.3047,182.2852,190.2539,186.2695,186.2695,180.293,186.2695,190.2539,212.168,237.0703,0.4669189,2.957153,6.692505,11.51733,14.31885,16.93359,18.42773,18.92578,19.92188,20.41992,22.66113,23.78174,26.64551,30.38086,0,0,1.665344,1.665344,1.322937,1.431885,1.431885,1.540833,1.665344,5.665283,14.69238,24.27979,31.12793,33.12012,33.86719,39.09668,35.36133,26.64551,0,0,0,0,0,0,0,105.0879,98.61328,97.11914,92.13867,82.17773,83.67188,82.17773,81.18164,80.18555,89.64844,86.16211,77.69531,0,0,0,162.3633,122.5195,0,0,0,0,0,0,2.47467,2.957153,6.972656,11.1438,20.41992,0,0,0,0,102.5977,125.5078,125.5078,140.4492,144.4336,159.375,177.3047,0,0,0,0,11.1438,15.56396,27.26807,30.38086,38.34961,43.82813,65.74219,76.69922,104.0918,140.4492,173.3203,218.1445,0,0,0,0,16.93359,30.38086,38.34961,50.55176,57.02637,74.20898,83.67188,86.16211,83.67188,78.69141,72.2168,54.03809,39.84375,27.26807,20.41992,11.1438,6.16333,4.295654,0.7781982,239.0625,188.2617,160.3711,122.5195,104.0918,82.17773,64.74609,45.32227,27.26807,18.42773,8.155518,3.673096,0.9338379,245.0391,196.2305,164.3555,142.4414,129.4922,123.5156,129.4922,157.3828,180.293,226.1133,255,0.3112793,1.431885,4.077759,0,0,0,0,224.1211,175.3125,145.4297,0,0,0,0,0,0,0,0,0,0,0,0,0,0,0,0,0,0,0,0,0,0,0,0,0,0,0,0,0,0,0,0,0,0,0,0,106.582,93.63281,77.69531,65.74219,43.82813,26.02295,15.19043,5.41626,1.789856,0.07781982,204.1992,173.3203,147.4219,126.5039,110.5664,80.18555,55.03418,45.32227,29.13574,13.44727,9.089355,6.16333,2.801514,0,241.0547,204.1992,160.3711,119.5313,82.17773,61.75781,36.85547,17.43164,8.778076,6.972656,3.486328,1.431885,0.2334595,251.0156,202.207,180.293,154.3945,119.5313,80.18555,58.76953,40.59082,27.89063,18.92578,10.45898,5.41626,2.63031,0.7003784,239.0625,202.207,166.3477,136.4648,104.0918,83.67188,60.76172,44.5752,27.89063,18.92578,10.45898,7.252808,2.47467,0.7003784,235.0781,192.2461,173.3203,144.4336,118.0371,89.64844,73.21289,55.03418,42.08496,28.51318,24.90234,17.92969,11.89087,6.16333,3.890991,1.027222,0.07781982,0,206.1914,0,0,0,0,0,0,0,0,0,0,0,0,0,0,0,0,0,0,0,0,0,0,0,0,0,0,0,0,0,0,0,0,0,0,0
17.92969,21.54053,26.64551,32.37305,36.85547,41.33789,49.55566,53.29102,60.76172,66.73828,74.20898,80.18555,93.63281,93.63281,106.582,109.0723,116.543,125.5078,142.4414,150.4102,166.3477,177.3047,194.2383,200.2148,210.1758,226.1133,239.0625,255,0.7781982,1.322937,2.334595,3.315125,4.949341,6.16333,7.252808,8.466797,10.45898,13.07373,15.56396,19.42383,22.03857,25.5249,29.13574,34.61426,39.09668,50.55176,51.29883,57.02637,62.75391,71.2207,74.20898,92.13867,101.1035,118.0371,134.4727,152.4023,164.3555,177.3047,186.2695,198.2227,212.168,216.1523,233.0859,249.0234,0.1556396,0.8560181,1.540833,3.486328,4.731445,6.692505,8.466797,10.45898,11.89087,15.19043,17.92969,22.03857,26.02295,32.37305,33.86719,41.33789,47.8125,52.29492,57.77344,70.22461,78.69141,87.1582,96.12305,106.582,0,0,0,0,0,0,0,0,0,206.1914,155.3906,136.4648,134.4727,139.4531,147.4219,159.375,173.3203,190.2539,208.1836,222.1289,237.0703,253.0078,0.5447388,1.789856,2.178955,3.486328,4.295654,6.16333,7.844238,11.89087,16.93359,21.54053,25.5249,24.27979,0,0,0,0,162.3633,154.3945,149.4141,149.4141,147.4219,152.4023,157.3828,160.3711,166.3477,171.3281,175.3125,177.3047,180.293,180.293,180.293,177.3047,175.3125,173.3203,171.3281,171.3281,169.3359,168.3398,162.3633,154.3945,144.4336,132.4805,122.5195,116.543,109.0723,104.0918,99.60938,97.11914,92.13867,90.64453,89.64844,87.1582,86.16211,86.16211,84.66797,82.17773,83.67188,83.67188,84.66797,84.66797,87.1582,86.16211,87.1582,88.65234,89.64844,90.64453,93.63281,96.12305,98.61328,101.1035,104.0918,106.582,108.0762,108.0762,110.5664,110.5664,112.0605,113.5547,116.543,115.0488,116.543,116.543,118.0371,118.0371,120.5273,120.5273,122.5195,123.5156,123.5156,122.5195,122.5195,120.5273,120.5273,122.5195,123.5156,122.5195,123.5156,123.5156,123.5156,123.5156,126.5039,129.4922,131.4844,132.4805,137.4609,140.4492,144.4336,147.4219,150.4102,152.4023,154.3945,157.3828,164.3555,168.3398,168.3398,168.3398,177.3047,169.3359,168.3398,168.3398,175.3125,177.3047,184.2773,204.1992,237.0703,0.6225586,2.63031,5.665283,10.08545,12.2644,13.94531,15.56396,16.06201,16.93359,17.92969,19.42383,21.04248,24.27979,29.13574,39.84375,0,1.789856,1.540833,1.213989,1.431885,1.431885,1.431885,1.665344,4.295654,10.08545,21.04248,31.12793,37.60254,45.32227,43.82813,35.36133,21.04248,0,0,0,0,0,0,0,108.0762,99.60938,97.11914,92.13867,82.17773,83.67188,82.17773,81.18164,78.69141,88.65234,87.1582,80.18555,0,0,0,0,119.5313,89.64844,0,0,0,0,1.213989,3.673096,4.731445,6.692505,11.51733,20.41992,28.51318,0,0,0,92.13867,118.0371,110.5664,122.5195,128.4961,152.4023,164.3555,0,0,0,0,11.1438,18.42773,35.36133,0,42.83203,46.31836,60.76172,66.73828,99.60938,0,0,235.0781,0,0,0,12.2644,18.92578,31.12793,38.34961,47.8125,51.29883,67.73438,74.20898,77.69531,78.69141,73.21289,63.75,53.29102,41.33789,31.12793,23.78174,13.94531,6.412354,3.673096,0.7003784,241.0547,188.2617,169.3359,131.4844,109.0723,83.67188,63.75,43.82813,23.15918,13.94531,6.16333,2.801514,0.3890991,249.0234,198.2227,159.375,136.4648,123.5156,112.0605,123.5156,150.4102,169.3359,210.1758,231.0938,241.0547,0.5447388,3.486328,0,0,0,0,222.1289,169.3359,139.4531,120.5273,0,0,0,0,0,0,0,0,0,0,0,0,0,0,0,0,0,0,0,0,0,0,0,0,0,0,0,0,0,0,0,0,0,0,0,0,83.67188,65.74219,59.76563,47.06543,24.27979,14.69238,6.16333,1.914368,0.07781982,214.1602,171.3281,139.4531,123.5156,104.0918,75.70313,59.76563,44.5752,24.90234,13.07373,8.778076,4.731445,2.47467,1.213989,241.0547,204.1992,157.3828,120.5273,81.18164,63.75,38.34961,19.92188,9.089355,7.532959,2.63031,1.213989,251.0156,228.1055,188.2617,171.3281,139.4531,106.582,70.22461,47.8125,31.12793,22.03857,0,9.400635,4.949341,2.038879,0.2334595,220.1367,188.2617,154.3945,116.543,87.1582,71.2207,45.32227,33.86719,25.5249,18.92578,10.45898,8.155518,3.315125,0.7781982,237.0703,0,173.3203,149.4141,122.5195,93.63281,0,0,0,30.38086,23.15918,16.56006,10.77026,5.914307,4.077759,2.038879,0.3112793,237.0703,202.207,0,0,0,0,0,0,0,0,0,0,0,0,0,0,0,0,0,0,0,0,0,0,0,0,0,0,0,0,0,0,0,0,0,0,0
15.56396,21.54053,25.5249,32.37305,36.1084,42.83203,47.8125,54.03809,57.77344,62.75391,71.2207,74.20898,82.17773,90.64453,106.582,105.0879,120.5273,120.5273,144.4336,150.4102,164.3555,175.3125,186.2695,200.2148,216.1523,228.1055,249.0234,0.07781982,0.3890991,1.120605,2.038879,2.801514,4.077759,5.167236,6.412354,7.844238,10.45898,12.2644,16.06201,18.42773,24.27979,26.02295,29.88281,33.86719,39.84375,44.5752,49.55566,58.76953,57.77344,68.73047,74.20898,86.16211,99.60938,115.0488,129.4922,150.4102,162.3633,169.3359,184.2773,190.2539,206.1914,214.1602,224.1211,239.0625,249.0234,0.4669189,0.9338379,2.334595,2.957153,5.41626,7.252808,9.089355,11.51733,14.69238,17.43164,21.04248,24.90234,28.51318,34.61426,39.84375,45.32227,53.29102,58.76953,66.73828,75.70313,83.67188,90.64453,0,0,0,0,0,0,0,0,0,1.789856,243.0469,171.3281,144.4336,139.4531,142.4414,149.4141,157.3828,173.3203,182.2852,206.1914,222.1289,228.1055,241.0547,0.2334595,1.213989,2.038879,4.077759,4.949341,6.972656,7.844238,11.1438,13.44727,16.93359,19.92188,19.92188,0,0,0,0,173.3203,159.375,152.4023,150.4102,149.4141,152.4023,155.3906,160.3711,164.3555,171.3281,175.3125,177.3047,178.3008,180.293,178.3008,175.3125,171.3281,169.3359,168.3398,166.3477,166.3477,164.3555,159.375,150.4102,140.4492,131.4844,122.5195,116.543,109.0723,104.0918,99.60938,97.11914,93.63281,92.13867,90.64453,89.64844,88.65234,87.1582,87.1582,84.66797,86.16211,84.66797,86.16211,86.16211,87.1582,87.1582,88.65234,90.64453,93.63281,94.62891,96.12305,98.61328,99.60938,102.5977,105.0879,108.0762,109.0723,110.5664,113.5547,113.5547,115.0488,115.0488,116.543,115.0488,118.0371,116.543,118.0371,119.5313,122.5195,122.5195,122.5195,123.5156,122.5195,120.5273,120.5273,122.5195,122.5195,122.5195,123.5156,123.5156,125.5078,125.5078,125.5078,125.5078,128.4961,129.4922,129.4922,129.4922,137.4609,140.4492,140.4492,145.4297,150.4102,152.4023,152.4023,160.3711,164.3555,164.3555,168.3398,168.3398,171.3281,164.3555,164.3555,168.3398,166.3477,168.3398,186.2695,204.1992,237.0703,0.7781982,2.801514,6.972656,10.08545,12.2644,13.44727,14.69238,14.69238,15.19043,16.06201,17.43164,19.42383,23.15918,27.89063,0,0,1.789856,1.540833,1.213989,1.322937,1.322937,1.322937,1.431885,3.890991,7.252808,14.69238,21.04248,0,0,0,0,0,0,0,0,0,0,0,0,0,98.61328,97.11914,89.64844,81.18164,82.17773,81.18164,80.18555,78.69141,88.65234,89.64844,83.67188,0,0,0,0,139.4531,0,0,0,0,0,0,2.47467,2.47467,4.077759,9.089355,0,0,0,0,0,72.2168,99.60938,94.62891,0,125.5078,166.3477,177.3047,218.1445,0,0,0,9.711914,19.92188,33.86719,40.59082,40.59082,42.08496,52.29492,59.76563,94.62891,147.4219,200.2148,0.07781982,0,5.41626,8.778076,15.56396,22.03857,29.88281,34.61426,42.83203,50.55176,59.76563,60.76172,64.74609,71.2207,66.73828,59.76563,53.29102,42.83203,32.37305,24.90234,15.19043,8.155518,4.51355,0.8560181,241.0547,190.2539,166.3477,128.4961,104.0918,75.70313,61.75781,45.32227,26.02295,0,6.972656,2.801514,0.3112793,245.0391,208.1836,162.3633,136.4648,123.5156,109.0723,112.0605,145.4297,177.3047,220.1367,0.07781982,0.07781982,1.027222,2.178955,0,0,0,0,228.1055,184.2773,150.4102,125.5078,0,0,0,0,0,0,0,0,0,0,0,0,0,0,0,0,0,0,0,0,0,0,0,0,0,0,0,0,0,0,0,0,0,0,0,0,98.61328,67.73438,59.76563,46.31836,26.02295,11.89087,5.914307,1.789856,0.2334595,208.1836,169.3359,128.4961,115.0488,93.63281,70.22461,57.77344,47.8125,26.02295,12.2644,8.778076,4.295654,1.540833,0.4669189,249.0234,218.1445,171.3281,134.4727,97.11914,70.22461,39.84375,21.04248,10.77026,7.844238,2.63031,0.7003784,253.0078,226.1133,182.2852,159.375,132.4805,97.11914,67.73438,48.80859,30.38086,21.04248,13.07373,7.532959,4.295654,1.665344,0.07781982,218.1445,186.2695,147.4219,104.0918,72.2168,65.74219,41.33789,30.38086,21.54053,14.31885,8.155518,6.412354,2.801514,0.8560181,253.0078,0,0,159.375,128.4961,96.12305,78.69141,59.76563,40.59082,29.13574,22.03857,14.31885,9.089355,4.51355,2.334595,0.7003784,239.0625,214.1602,0,0,0,0,0,0,0,0,0,0,0,0,0,0,0,0,0,0,0,0,0,0,0,0,0,0,0,0,0,0,0,0,0,0,0,0
15.56396,19.92188,26.64551,35.36133,38.34961,45.32227,50.55176,56.03027,57.02637,61.75781,64.74609,67.73438,80.18555,88.65234,98.61328,104.0918,119.5313,126.5039,144.4336,154.3945,169.3359,173.3203,186.2695,198.2227,218.1445,231.0938,245.0391,255,0.4669189,0.7781982,1.322937,2.038879,3.315125,4.51355,6.16333,6.692505,9.711914,11.51733,16.06201,17.92969,22.03857,26.02295,28.51318,33.12012,37.60254,42.08496,47.06543,52.29492,57.02637,65.74219,73.21289,86.16211,99.60938,116.543,131.4844,150.4102,159.375,168.3398,177.3047,196.2305,202.207,208.1836,224.1211,239.0625,243.0469,0.07781982,0.4669189,1.914368,2.47467,5.167236,6.972656,9.089355,11.1438,13.94531,16.93359,18.92578,23.78174,28.51318,35.36133,41.33789,46.31836,53.29102,58.76953,64.74609,71.2207,80.18555,84.66797,0,0,0,0,0,0,0,0,9.711914,3.128357,0.07781982,177.3047,147.4219,136.4648,142.4414,150.4102,159.375,177.3047,192.2461,202.207,210.1758,222.1289,231.0938,251.0156,0.8560181,1.540833,2.63031,4.077759,5.167236,6.692505,8.778076,11.51733,13.94531,17.92969,18.92578,0,0,0,0,173.3203,162.3633,155.3906,154.3945,152.4023,154.3945,157.3828,160.3711,162.3633,169.3359,173.3203,175.3125,177.3047,177.3047,175.3125,171.3281,169.3359,168.3398,166.3477,166.3477,164.3555,160.3711,155.3906,147.4219,137.4609,128.4961,120.5273,115.0488,109.0723,104.0918,101.1035,98.61328,94.62891,93.63281,92.13867,89.64844,88.65234,88.65234,88.65234,87.1582,88.65234,87.1582,87.1582,87.1582,88.65234,89.64844,92.13867,93.63281,94.62891,96.12305,97.11914,99.60938,101.1035,102.5977,106.582,108.0762,110.5664,113.5547,116.543,116.543,119.5313,119.5313,119.5313,118.0371,119.5313,119.5313,119.5313,122.5195,123.5156,123.5156,123.5156,125.5078,123.5156,122.5195,123.5156,123.5156,123.5156,125.5078,125.5078,125.5078,126.5039,126.5039,126.5039,126.5039,126.5039,128.4961,128.4961,128.4961,134.4727,140.4492,142.4414,145.4297,149.4141,152.4023,152.4023,157.3828,159.375,159.375,160.3711,159.375,159.375,152.4023,160.3711,160.3711,169.3359,177.3047,194.2383,214.1602,241.0547,0.8560181,3.673096,7.252808,10.45898,12.7002,13.44727,14.31885,14.69238,15.19043,16.06201,17.43164,19.92188,22.66113,30.38086,0,0,1.789856,1.540833,1.120605,1.213989,1.322937,1.213989,1.322937,2.957153,5.41626,9.711914,10.45898,0,0,0,0,0,0,0,0,0,0,0,0,0,97.11914,96.12305,89.64844,82.17773,82.17773,82.17773,81.18164,80.18555,88.65234,89.64844,84.66797,0,0,0,0,0,0,0,0,0,0,0,0,0,4.731445,12.7002,19.42383,0,0,47.06543,49.55566,63.75,84.66797,83.67188,0,122.5195,168.3398,177.3047,224.1211,0,0,0,5.41626,11.89087,24.27979,31.875,38.34961,42.83203,57.02637,0,110.5664,152.4023,198.2227,0,0.8560181,3.486328,6.412354,11.89087,18.92578,27.89063,31.875,42.08496,47.8125,60.76172,63.75,71.2207,75.70313,74.20898,66.73828,58.76953,45.32227,33.86719,23.78174,12.7002,6.412354,2.63031,0.5447388,228.1055,188.2617,155.3906,122.5195,92.13867,66.73828,49.55566,36.85547,20.41992,14.69238,6.16333,2.178955,0.3890991,245.0391,212.168,173.3203,145.4297,0,0,0,144.4336,177.3047,220.1367,0.2334595,0.3890991,1.914368,0,0,0,0,0,224.1211,184.2773,145.4297,0,0,0,0,0,0,0,0,0,0,0,0,0,0,0,0,0,0,0,0,0,0,0,0,0,0,0,0,0,0,0,0,0,0,0,0,0,96.12305,58.76953,51.29883,34.61426,22.66113,10.08545,4.731445,1.322937,0.3112793,202.207,166.3477,134.4727,120.5273,94.62891,73.21289,58.76953,40.59082,20.41992,13.07373,8.778076,3.486328,1.120605,0.1556396,228.1055,188.2617,149.4141,122.5195,89.64844,67.73438,43.82813,26.64551,14.31885,7.532959,2.957153,0.7003784,255,222.1289,178.3008,155.3906,126.5039,86.16211,53.29102,37.60254,22.03857,14.31885,9.711914,6.972656,4.731445,1.322937,249.0234,198.2227,162.3633,128.4961,98.61328,70.22461,62.75391,40.59082,26.64551,16.56006,10.77026,7.532959,4.949341,2.63031,0.9338379,255,194.2383,171.3281,145.4297,125.5078,99.60938,84.66797,61.75781,41.33789,29.13574,19.92188,12.7002,8.778076,5.167236,2.63031,0.7003784,243.0469,218.1445,175.3125,0,0,0,0,0,0,0,0,0,0,0,0,0,0,0,0,0,0,0,0,0,0,0,0,0,0,0,0,0,0,0,0,0,0,0
16.93359,21.04248,24.27979,32.37305,36.1084,42.08496,48.80859,54.03809,55.03418,61.75781,63.75,68.73047,77.69531,84.66797,98.61328,106.582,120.5273,126.5039,140.4492,152.4023,160.3711,175.3125,182.2852,192.2461,210.1758,228.1055,239.0625,253.0078,0.4669189,0.7781982,1.120605,2.038879,3.315125,4.731445,6.692505,7.532959,10.77026,11.51733,15.56396,17.92969,23.15918,26.02295,29.13574,33.12012,36.1084,42.83203,46.31836,52.29492,57.02637,64.74609,68.73047,84.66797,98.61328,115.0488,128.4961,144.4336,154.3945,164.3555,171.3281,178.3008,190.2539,210.1758,216.1523,237.0703,245.0391,0.2334595,0.3890991,1.213989,1.789856,3.315125,5.41626,7.844238,9.711914,12.7002,15.19043,16.56006,22.03857,26.64551,32.37305,39.09668,45.32227,51.29883,54.03809,61.75781,71.2207,76.69922,82.17773,0,0,0,0,0,0,0,0,17.92969,3.890991,0.1556396,175.3125,147.4219,132.4805,137.4609,145.4297,152.4023,171.3281,182.2852,202.207,200.2148,220.1367,228.1055,241.0547,0.6225586,1.431885,2.334595,3.890991,4.949341,5.914307,7.844238,10.45898,12.7002,16.93359,19.42383,16.56006,0,0,0,0,168.3398,159.375,155.3906,154.3945,154.3945,157.3828,159.375,160.3711,166.3477,169.3359,171.3281,171.3281,173.3203,169.3359,169.3359,168.3398,169.3359,168.3398,166.3477,164.3555,159.375,152.4023,144.4336,137.4609,128.4961,120.5273,116.543,109.0723,105.0879,101.1035,99.60938,96.12305,96.12305,94.62891,92.13867,90.64453,90.64453,90.64453,89.64844,89.64844,89.64844,89.64844,89.64844,90.64453,92.13867,93.63281,96.12305,97.11914,98.61328,99.60938,102.5977,102.5977,105.0879,108.0762,110.5664,112.0605,115.0488,119.5313,118.0371,120.5273,120.5273,120.5273,119.5313,119.5313,119.5313,120.5273,122.5195,125.5078,125.5078,126.5039,126.5039,125.5078,125.5078,125.5078,125.5078,125.5078,126.5039,126.5039,126.5039,128.4961,128.4961,128.4961,128.4961,129.4922,129.4922,129.4922,131.4844,136.4648,140.4492,140.4492,145.4297,145.4297,150.4102,150.4102,154.3945,150.4102,155.3906,152.4023,155.3906,157.3828,157.3828,157.3828,162.3633,168.3398,177.3047,192.2461,212.168,249.0234,1.431885,4.077759,8.155518,11.1438,13.44727,13.94531,14.69238,14.69238,15.56396,16.56006,17.92969,20.41992,24.27979,31.12793,0,0,1.665344,1.431885,1.027222,1.213989,1.213989,1.120605,1.213989,2.63031,3.890991,7.252808,6.412354,8.466797,0,0,0,0,0,0,0,0,0,0,0,0,0,92.13867,88.65234,82.17773,82.17773,82.17773,81.18164,80.18555,87.1582,88.65234,86.16211,0,0,0,0,0,0,0,0,0,0,0,0,0,0,0,0,0,0,57.77344,57.77344,65.74219,83.67188,80.18555,94.62891,122.5195,157.3828,175.3125,218.1445,245.0391,0.1556396,0.7003784,4.731445,11.89087,23.78174,31.12793,39.09668,46.31836,61.75781,0,105.0879,134.4727,186.2695,0,0.2334595,3.128357,7.252808,10.08545,16.56006,23.15918,25.5249,31.875,41.33789,53.29102,57.02637,65.74219,68.73047,68.73047,57.77344,52.29492,42.83203,31.875,21.54053,15.19043,8.155518,2.63031,0.8560181,233.0859,188.2617,157.3828,125.5078,96.12305,68.73047,49.55566,34.61426,19.92188,14.31885,6.16333,2.334595,0.5447388,245.0391,218.1445,182.2852,145.4297,132.4805,119.5313,120.5273,134.4727,178.3008,214.1602,255,0.1556396,1.120605,1.120605,0,0,0,0,220.1367,180.293,154.3945,0,0,0,0,0,0,0,0,0,0,0,0,0,0,0,0,0,0,0,0,0,0,0,0,0,0,0,0,0,0,0,0,0,0,0,0,0,84.66797,61.75781,50.55176,37.60254,24.27979,0,0,0,0,204.1992,155.3906,125.5078,112.0605,83.67188,65.74219,57.02637,42.08496,22.03857,16.93359,9.089355,3.315125,0.6225586,251.0156,206.1914,177.3047,140.4492,118.0371,84.66797,59.76563,39.09668,27.26807,14.31885,8.778076,3.486328,1.322937,0.2334595,224.1211,175.3125,149.4141,118.0371,76.69922,53.29102,40.59082,25.5249,14.69238,10.08545,6.16333,3.486328,0.7003784,237.0703,182.2852,159.375,123.5156,97.11914,76.69922,71.2207,44.5752,31.875,19.92188,9.711914,5.665283,3.315125,2.47467,0.8560181,251.0156,206.1914,178.3008,140.4492,116.543,94.62891,75.70313,57.02637,39.84375,26.64551,17.92969,12.7002,8.778076,4.949341,2.63031,0.7003784,231.0938,202.207,159.375,0,0,0,0,0,0,0,0,0,0,0,0,0,0,0,0,0,0,0,0,0,0,0,0,0,0,0,0,0,0,0,0,0,0,0
16.93359,21.04248,24.90234,33.12012,36.85547,42.83203,47.8125,55.03418,54.03809,58.76953,63.75,67.73438,75.70313,82.17773,94.62891,102.5977,119.5313,129.4922,140.4492,154.3945,166.3477,169.3359,180.293,194.2383,206.1914,216.1523,235.0781,249.0234,0.07781982,0.1556396,0.7781982,1.431885,2.801514,4.077759,6.412354,7.532959,9.400635,11.51733,13.94531,16.93359,21.04248,23.15918,28.51318,33.12012,37.60254,43.82813,46.31836,53.29102,55.03418,61.75781,68.73047,80.18555,93.63281,109.0723,122.5195,137.4609,149.4141,162.3633,166.3477,178.3008,184.2773,208.1836,220.1367,239.0625,245.0391,0.1556396,0.3890991,1.027222,1.431885,3.128357,4.51355,6.972656,9.711914,11.51733,14.69238,16.56006,21.54053,27.26807,33.86719,40.59082,44.5752,48.80859,52.29492,59.76563,66.73828,71.2207,76.69922,83.67188,0,0,0,0,0,0,0,19.92188,6.692505,1.213989,196.2305,147.4219,131.4844,132.4805,136.4648,154.3945,164.3555,175.3125,188.2617,200.2148,214.1602,231.0938,245.0391,0.5447388,1.431885,2.038879,3.486328,4.077759,6.16333,6.16333,10.08545,10.45898,14.69238,16.06201,14.31885,0,0,0,0,169.3359,160.3711,157.3828,154.3945,154.3945,154.3945,155.3906,157.3828,160.3711,164.3555,168.3398,169.3359,171.3281,169.3359,168.3398,168.3398,168.3398,168.3398,166.3477,166.3477,159.375,152.4023,144.4336,134.4727,128.4961,120.5273,116.543,110.5664,108.0762,104.0918,101.1035,97.11914,97.11914,94.62891,93.63281,93.63281,93.63281,93.63281,92.13867,92.13867,92.13867,92.13867,92.13867,93.63281,94.62891,96.12305,98.61328,99.60938,101.1035,102.5977,104.0918,105.0879,108.0762,109.0723,112.0605,115.0488,118.0371,120.5273,122.5195,123.5156,123.5156,123.5156,120.5273,122.5195,120.5273,122.5195,123.5156,125.5078,126.5039,126.5039,126.5039,126.5039,126.5039,126.5039,126.5039,128.4961,128.4961,129.4922,128.4961,129.4922,129.4922,129.4922,129.4922,131.4844,131.4844,131.4844,134.4727,137.4609,140.4492,142.4414,145.4297,147.4219,152.4023,150.4102,154.3945,152.4023,152.4023,145.4297,150.4102,155.3906,154.3945,155.3906,164.3555,171.3281,184.2773,200.2148,222.1289,0.07781982,1.213989,4.51355,9.089355,11.51733,13.44727,14.31885,15.19043,15.56396,16.06201,16.93359,18.42773,21.04248,24.27979,33.12012,0,0,1.789856,1.431885,1.213989,1.322937,1.213989,1.213989,1.322937,2.334595,3.486328,5.665283,5.665283,0,0,0,0,0,0,0,0,0,0,0,0,0,0,92.13867,87.1582,81.18164,81.18164,81.18164,80.18555,80.18555,87.1582,92.13867,92.13867,0,0,0,0,0,0,0,0,0,0,0,0,0,0,0,0,0,0,0,0,68.73047,89.64844,96.12305,108.0762,150.4102,182.2852,194.2383,228.1055,0.6225586,0.3112793,1.027222,0,11.1438,18.42773,26.64551,34.61426,47.8125,0,0,0,139.4531,190.2539,212.168,0.1556396,2.47467,7.844238,10.08545,18.42773,24.27979,30.38086,35.36133,50.55176,55.03418,62.75391,62.75391,70.22461,67.73438,60.76172,50.55176,42.83203,28.51318,18.42773,11.89087,8.155518,2.63031,1.322937,251.0156,198.2227,157.3828,129.4922,94.62891,65.74219,47.8125,37.60254,22.66113,17.43164,8.778076,3.673096,0.7003784,249.0234,210.1758,171.3281,142.4414,125.5078,115.0488,120.5273,131.4844,168.3398,198.2227,239.0625,249.0234,0.9338379,0,0,0,0,0,188.2617,166.3477,134.4727,0,0,0,0,0,0,0,0,0,0,0,0,0,0,0,0,0,0,0,0,0,0,0,0,0,0,0,0,0,0,0,0,0,0,0,0,0,83.67188,57.02637,45.32227,36.1084,23.15918,0,0,0,0,237.0703,168.3398,123.5156,102.5977,72.2168,55.03418,48.80859,33.86719,18.42773,14.69238,6.412354,1.914368,0.4669189,245.0391,214.1602,177.3047,142.4414,106.582,78.69141,51.29883,36.85547,25.5249,16.06201,7.532959,2.801514,0.4669189,241.0547,200.2148,169.3359,142.4414,118.0371,76.69922,61.75781,43.82813,27.89063,0,9.711914,4.731445,2.334595,251.0156,222.1289,178.3008,162.3633,129.4922,102.5977,78.69141,71.2207,44.5752,31.875,21.54053,11.51733,6.692505,3.128357,2.038879,0.3890991,241.0547,196.2305,175.3125,136.4648,119.5313,93.63281,76.69922,56.03027,42.83203,28.51318,19.42383,13.44727,9.711914,4.731445,2.63031,0.7781982,241.0547,200.2148,164.3555,0,0,0,0,0,0,0,0,0,0,0,0,0,0,0,0,0,0,0,0,0,0,0,0,0,0,0,0,0,0,0,0,0,0,0
16.93359,21.04248,24.90234,31.12793,33.86719,40.59082,44.5752,50.55176,51.29883,57.77344,63.75,67.73438,76.69922,86.16211,92.13867,101.1035,115.0488,125.5078,132.4805,149.4141,162.3633,169.3359,180.293,194.2383,204.1992,212.168,233.0859,251.0156,0,0.4669189,1.120605,1.914368,2.801514,4.731445,6.16333,8.778076,9.711914,11.89087,15.19043,17.43164,21.54053,24.90234,28.51318,33.86719,37.60254,43.82813,47.8125,52.29492,54.03809,64.74609,68.73047,77.69531,88.65234,104.0918,122.5195,136.4648,147.4219,159.375,168.3398,178.3008,188.2617,206.1914,218.1445,237.0703,249.0234,0.2334595,0.3890991,1.027222,1.431885,2.47467,3.673096,5.41626,7.844238,10.08545,12.2644,16.56006,21.04248,26.64551,33.86719,39.09668,42.08496,47.8125,51.29883,58.76953,63.75,73.21289,75.70313,0,0,0,0,0,0,0,0,22.66113,7.532959,1.914368,212.168,155.3906,129.4922,128.4961,137.4609,144.4336,159.375,171.3281,184.2773,198.2227,214.1602,231.0938,243.0469,0.3112793,1.322937,1.665344,3.315125,3.673096,5.167236,5.914307,9.089355,10.08545,13.94531,15.19043,13.94531,0,0,0,0,175.3125,164.3555,157.3828,154.3945,154.3945,154.3945,155.3906,155.3906,159.375,164.3555,166.3477,168.3398,169.3359,168.3398,166.3477,166.3477,166.3477,166.3477,164.3555,162.3633,157.3828,150.4102,140.4492,134.4727,126.5039,122.5195,116.543,110.5664,108.0762,104.0918,101.1035,98.61328,97.11914,96.12305,94.62891,94.62891,94.62891,94.62891,93.63281,93.63281,93.63281,92.13867,94.62891,94.62891,96.12305,97.11914,99.60938,101.1035,104.0918,106.582,108.0762,109.0723,110.5664,112.0605,115.0488,118.0371,120.5273,122.5195,125.5078,126.5039,125.5078,125.5078,123.5156,122.5195,123.5156,125.5078,126.5039,128.4961,129.4922,129.4922,131.4844,131.4844,131.4844,131.4844,131.4844,131.4844,131.4844,131.4844,131.4844,132.4805,132.4805,132.4805,132.4805,132.4805,132.4805,132.4805,136.4648,137.4609,144.4336,144.4336,149.4141,145.4297,149.4141,147.4219,145.4297,147.4219,147.4219,145.4297,149.4141,157.3828,157.3828,162.3633,169.3359,177.3047,186.2695,208.1836,228.1055,0.07781982,1.540833,4.51355,8.466797,11.51733,14.31885,14.69238,16.06201,16.56006,17.43164,18.42773,20.41992,22.66113,25.5249,35.36133,0,0,1.431885,1.213989,1.027222,1.120605,1.120605,1.027222,1.120605,2.038879,3.128357,4.295654,3.128357,0,0,0,0,0,0,0,0,0,0,0,0,0,0,88.65234,83.67188,80.18555,80.18555,80.18555,78.69141,78.69141,83.67188,86.16211,89.64844,0,0,0,0,0,0,0,0,0,0,0,0,0,0,0,0,0,0,0,0,0,0,0,126.5039,0,198.2227,226.1133,251.0156,1.120605,0.7003784,0.9338379,2.957153,5.665283,10.08545,18.42773,29.13574,42.83203,70.22461,0,126.5039,142.4414,184.2773,202.207,0,2.038879,6.16333,8.155518,15.56396,0,0,0,0,55.03418,60.76172,61.75781,71.2207,66.73828,60.76172,50.55176,40.59082,23.15918,15.19043,10.08545,7.252808,0,1.027222,239.0625,0,0,125.5078,0,64.74609,47.8125,33.86719,22.03857,16.56006,8.778076,3.128357,1.120605,251.0156,212.168,177.3047,147.4219,129.4922,118.0371,120.5273,139.4531,177.3047,206.1914,249.0234,0.1556396,1.120605,0.7003784,0,0,0,0,184.2773,169.3359,140.4492,0,0,0,0,0,0,0,0,0,0,0,0,0,0,0,0,0,0,0,0,0,0,0,0,0,0,0,0,0,0,0,0,0,0,0,0,0,89.64844,64.74609,46.31836,32.37305,0,0,0,0,0,228.1055,152.4023,115.0488,97.11914,63.75,53.29102,44.5752,29.88281,17.43164,14.69238,5.167236,1.665344,0.2334595,233.0859,192.2461,155.3906,123.5156,96.12305,73.21289,48.80859,37.60254,27.26807,14.69238,6.16333,2.334595,253.0078,224.1211,188.2617,160.3711,137.4609,110.5664,73.21289,57.02637,39.09668,0,0,7.252808,4.295654,2.178955,249.0234,231.0938,184.2773,154.3945,125.5078,105.0879,80.18555,71.2207,51.29883,39.84375,22.66113,13.44727,7.844238,2.957153,1.322937,0.3890991,239.0625,206.1914,190.2539,149.4141,128.4961,99.60938,76.69922,55.03418,42.08496,28.51318,21.04248,14.31885,9.711914,4.731445,1.789856,251.0156,222.1289,178.3008,149.4141,0,0,0,0,0,0,0,0,0,0,0,0,0,0,0,0,0,0,0,0,0,0,0,0,0,0,0,0,0,0,0,0,0,0,0
16.93359,20.41992,24.27979,31.12793,31.875,38.34961,41.33789,47.06543,49.55566,57.77344,64.74609,70.22461,78.69141,88.65234,94.62891,104.0918,113.5547,123.5156,132.4805,145.4297,155.3906,162.3633,173.3203,188.2617,198.2227,214.1602,228.1055,245.0391,0.1556396,0.5447388,0.7781982,1.431885,2.801514,5.167236,6.692505,9.400635,10.45898,13.07373,15.56396,17.92969,19.92188,23.78174,27.26807,32.37305,36.1084,42.83203,46.31836,51.29883,55.03418,63.75,65.74219,76.69922,87.1582,102.5977,119.5313,132.4805,147.4219,155.3906,162.3633,173.3203,186.2695,202.207,214.1602,235.0781,249.0234,0.3112793,0.3890991,1.213989,1.431885,2.47467,3.673096,4.949341,6.972656,9.400635,12.7002,15.19043,21.04248,26.64551,33.86719,39.09668,42.08496,47.8125,49.55566,57.02637,62.75391,68.73047,75.70313,0,0,0,0,0,0,0,0,16.06201,6.692505,1.789856,212.168,160.3711,131.4844,126.5039,140.4492,147.4219,152.4023,171.3281,186.2695,194.2383,214.1602,231.0938,243.0469,0.4669189,1.120605,1.322937,3.128357,3.128357,5.41626,6.16333,9.400635,10.45898,12.7002,13.44727,12.2644,0,0,0,0,180.293,168.3398,160.3711,159.375,157.3828,157.3828,155.3906,157.3828,159.375,162.3633,164.3555,166.3477,166.3477,166.3477,164.3555,166.3477,166.3477,166.3477,164.3555,162.3633,157.3828,150.4102,142.4414,132.4805,126.5039,120.5273,116.543,112.0605,109.0723,106.582,104.0918,101.1035,98.61328,97.11914,94.62891,94.62891,94.62891,94.62891,93.63281,94.62891,94.62891,96.12305,97.11914,98.61328,99.60938,101.1035,102.5977,102.5977,106.582,108.0762,110.5664,112.0605,115.0488,115.0488,116.543,118.0371,119.5313,122.5195,125.5078,126.5039,126.5039,128.4961,126.5039,126.5039,126.5039,128.4961,129.4922,131.4844,132.4805,132.4805,134.4727,136.4648,136.4648,136.4648,134.4727,132.4805,132.4805,132.4805,132.4805,132.4805,134.4727,136.4648,136.4648,136.4648,136.4648,139.4531,139.4531,144.4336,149.4141,149.4141,149.4141,144.4336,144.4336,145.4297,142.4414,144.4336,147.4219,144.4336,145.4297,155.3906,155.3906,162.3633,168.3398,178.3008,188.2617,220.1367,237.0703,0.1556396,1.431885,4.077759,8.778076,11.51733,14.31885,15.19043,16.56006,16.93359,18.42773,18.92578,20.41992,22.66113,25.5249,35.36133,0,0,1.120605,1.120605,0.9338379,1.027222,1.027222,1.027222,1.120605,2.178955,3.128357,4.077759,3.673096,0,0,0,0,0,0,0,0,0,0,0,0,0,0,87.1582,82.17773,80.18555,80.18555,78.69141,78.69141,77.69531,80.18555,80.18555,87.1582,0,0,0,0,0,0,0,0,0,0,0,0,0,0,0,0,0,0,0,0,0,139.4531,152.4023,164.3555,196.2305,210.1758,233.0859,0.4669189,2.334595,1.914368,3.128357,6.16333,7.252808,12.2644,17.92969,31.875,0,71.2207,0,0,128.4961,159.375,182.2852,224.1211,0.7781982,3.673096,6.412354,11.51733,0,0,0,0,60.76172,66.73828,67.73438,73.21289,65.74219,60.76172,49.55566,40.59082,23.15918,14.69238,9.711914,6.692505,2.47467,1.665344,0,202.207,162.3633,123.5156,0,67.73438,51.29883,32.37305,19.42383,12.2644,5.914307,1.213989,0.3112793,228.1055,198.2227,171.3281,152.4023,129.4922,119.5313,119.5313,131.4844,155.3906,194.2383,228.1055,0.1556396,0.7781982,0.6225586,0,0,0,249.0234,171.3281,150.4102,129.4922,0,0,0,0,0,0,0,0,0,0,0,0,0,0,0,0,0,0,0,0,0,0,0,0,0,0,0,0,0,0,0,0,0,0,0,0,0,68.73047,57.77344,40.59082,31.12793,21.04248,15.56396,0,0,0,0,155.3906,118.0371,90.64453,73.21289,59.76563,49.55566,35.36133,23.15918,16.93359,5.665283,1.914368,0.07781982,218.1445,168.3398,129.4922,105.0879,81.18164,67.73438,46.31836,36.85547,25.5249,14.31885,5.914307,2.038879,0.3890991,218.1445,188.2617,160.3711,142.4414,106.582,76.69922,57.02637,38.34961,24.27979,0,8.155518,5.167236,2.47467,0.2334595,231.0938,188.2617,155.3906,131.4844,108.0762,87.1582,73.21289,54.03809,42.08496,24.90234,16.56006,10.08545,3.890991,1.789856,0.8560181,233.0859,200.2148,188.2617,147.4219,125.5078,99.60938,75.70313,54.03809,39.84375,26.64551,19.42383,13.07373,8.155518,4.731445,1.540833,255,222.1289,182.2852,150.4102,144.4336,0,0,0,0,0,0,0,0,0,0,0,0,0,0,0,0,0,0,0,0,0,0,0,0,0,0,0,0,0,0,0,0,0,0
16.06201,19.92188,22.66113,29.13574,29.88281,34.61426,39.09668,45.32227,47.8125,58.76953,65.74219,72.2168,81.18164,89.64844,96.12305,101.1035,112.0605,119.5313,125.5078,137.4609,150.4102,157.3828,173.3203,182.2852,196.2305,208.1836,224.1211,239.0625,255,0.3890991,0.8560181,1.789856,2.63031,4.949341,7.844238,10.45898,11.51733,13.94531,15.19043,17.92969,19.42383,23.15918,27.26807,30.38086,34.61426,39.84375,45.32227,51.29883,56.03027,63.75,68.73047,75.70313,86.16211,97.11914,119.5313,131.4844,147.4219,152.4023,164.3555,169.3359,180.293,196.2305,208.1836,231.0938,239.0625,0.3890991,0.6225586,1.431885,1.540833,2.47467,3.486328,5.167236,6.412354,8.155518,11.89087,14.69238,18.92578,24.27979,29.13574,34.61426,38.34961,46.31836,51.29883,58.76953,63.75,70.22461,78.69141,0,0,0,0,0,0,0,0,0,5.41626,0.9338379,208.1836,159.375,136.4648,126.5039,132.4805,140.4492,154.3945,164.3555,177.3047,194.2383,218.1445,233.0859,253.0078,0.5447388,1.120605,1.540833,2.47467,3.486328,4.949341,5.914307,9.089355,10.77026,14.69238,13.44727,13.44727,0,0,0,0,184.2773,171.3281,164.3555,160.3711,157.3828,157.3828,157.3828,159.375,159.375,162.3633,164.3555,164.3555,164.3555,166.3477,164.3555,164.3555,164.3555,164.3555,162.3633,160.3711,154.3945,149.4141,140.4492,132.4805,126.5039,122.5195,118.0371,113.5547,112.0605,109.0723,106.582,102.5977,101.1035,99.60938,98.61328,98.61328,97.11914,97.11914,97.11914,98.61328,97.11914,98.61328,101.1035,102.5977,104.0918,104.0918,105.0879,105.0879,109.0723,112.0605,115.0488,116.543,118.0371,119.5313,120.5273,122.5195,122.5195,123.5156,125.5078,126.5039,128.4961,129.4922,128.4961,128.4961,129.4922,129.4922,129.4922,132.4805,134.4727,136.4648,137.4609,139.4531,137.4609,137.4609,136.4648,136.4648,134.4727,134.4727,134.4727,134.4727,136.4648,139.4531,139.4531,139.4531,140.4492,142.4414,145.4297,147.4219,154.3945,152.4023,149.4141,147.4219,142.4414,142.4414,139.4531,147.4219,150.4102,149.4141,152.4023,162.3633,162.3633,169.3359,175.3125,188.2617,208.1836,224.1211,241.0547,0.3112793,1.431885,3.673096,9.089355,12.2644,14.69238,15.56396,16.56006,16.93359,18.42773,18.42773,20.41992,22.03857,26.02295,39.09668,0,0,0.7781982,0.8560181,0.7781982,0.7781982,0.8560181,0.8560181,1.027222,1.789856,2.957153,5.167236,6.16333,0,0,0,0,0,0,0,0,0,0,0,0,0,0,87.1582,83.67188,78.69141,78.69141,78.69141,78.69141,77.69531,78.69141,75.70313,80.18555,0,0,0,0,0,0,0,0,0,0,0,0,0,0,0,0,0,0,0,0,0,142.4414,162.3633,166.3477,196.2305,204.1992,226.1133,0,0,0.5447388,0,6.16333,6.692505,11.89087,18.42773,28.51318,0,0,0,0,0,0,0,241.0547,1.914368,5.167236,8.466797,12.2644,0,0,0,56.03027,60.76172,62.75391,62.75391,67.73438,55.03418,51.29883,41.33789,36.85547,22.66113,16.06201,9.711914,6.16333,1.665344,0.2334595,218.1445,168.3398,137.4609,104.0918,86.16211,59.76563,45.32227,30.38086,17.92969,11.1438,6.692505,1.431885,251.0156,218.1445,188.2617,155.3906,142.4414,131.4844,120.5273,119.5313,131.4844,159.375,178.3008,206.1914,243.0469,0,237.0703,0,0,0,241.0547,175.3125,152.4023,137.4609,0,0,0,0,0,0,0,0,0,0,0,0,0,0,0,0,0,0,0,0,0,0,0,0,0,0,0,0,0,0,0,0,0,0,0,0,0,67.73438,59.76563,47.8125,35.36133,21.54053,12.2644,6.692505,4.077759,0,0,168.3398,116.543,88.65234,74.20898,56.03027,47.8125,33.12012,22.66113,13.07373,3.673096,0.5447388,233.0859,200.2148,157.3828,123.5156,104.0918,84.66797,64.74609,47.06543,36.85547,23.78174,11.89087,5.41626,1.789856,0.1556396,214.1602,188.2617,157.3828,134.4727,102.5977,76.69922,53.29102,36.1084,24.90234,18.42773,8.778076,5.167236,1.789856,0.07781982,226.1133,194.2383,159.375,136.4648,106.582,87.1582,74.20898,56.03027,44.5752,29.13574,18.92578,9.711914,3.890991,1.431885,0.5447388,231.0938,202.207,184.2773,147.4219,116.543,89.64844,67.73438,49.55566,36.85547,23.78174,17.43164,11.1438,6.412354,2.801514,0.8560181,243.0469,212.168,178.3008,159.375,0,0,0,0,0,0,0,0,0,0,0,0,0,0,0,0,0,0,0,0,0,0,0,0,0,0,0,0,0,0,0,0,0,0,0
15.19043,18.92578,23.15918,27.26807,29.88281,36.1084,37.60254,42.83203,45.32227,55.03418,61.75781,68.73047,80.18555,89.64844,96.12305,102.5977,115.0488,120.5273,126.5039,136.4648,145.4297,150.4102,164.3555,180.293,190.2539,206.1914,228.1055,245.0391,255,0.2334595,0.7003784,1.213989,2.63031,4.51355,8.155518,9.711914,11.51733,13.07373,15.19043,17.43164,20.41992,22.66113,27.89063,29.88281,33.12012,39.09668,43.82813,47.8125,52.29492,63.75,67.73438,74.20898,87.1582,101.1035,120.5273,131.4844,149.4141,154.3945,160.3711,168.3398,180.293,190.2539,200.2148,224.1211,237.0703,0.2334595,0.3890991,1.213989,1.540833,2.47467,3.890991,5.914307,8.778076,9.711914,13.94531,15.56396,19.42383,23.78174,29.88281,36.1084,39.84375,47.06543,52.29492,55.03418,59.76563,65.74219,70.22461,70.22461,0,0,0,0,0,0,0,0,5.167236,1.322937,208.1836,164.3555,139.4531,125.5078,128.4961,140.4492,152.4023,164.3555,178.3008,198.2227,212.168,233.0859,0,0.4669189,1.027222,1.431885,2.334595,2.957153,5.41626,7.252808,10.08545,11.51733,15.19043,15.56396,0,0,0,0,0,188.2617,173.3203,166.3477,160.3711,160.3711,160.3711,160.3711,160.3711,160.3711,162.3633,164.3555,166.3477,166.3477,166.3477,166.3477,164.3555,164.3555,162.3633,160.3711,159.375,154.3945,147.4219,139.4531,129.4922,125.5078,122.5195,116.543,113.5547,112.0605,109.0723,108.0762,105.0879,104.0918,104.0918,101.1035,101.1035,99.60938,99.60938,98.61328,99.60938,99.60938,101.1035,104.0918,105.0879,105.0879,108.0762,109.0723,109.0723,112.0605,115.0488,118.0371,120.5273,122.5195,122.5195,123.5156,125.5078,123.5156,125.5078,126.5039,128.4961,129.4922,131.4844,131.4844,131.4844,131.4844,132.4805,131.4844,134.4727,136.4648,137.4609,140.4492,142.4414,140.4492,142.4414,140.4492,137.4609,137.4609,137.4609,137.4609,139.4531,142.4414,144.4336,142.4414,142.4414,142.4414,144.4336,147.4219,150.4102,154.3945,159.375,150.4102,144.4336,139.4531,142.4414,139.4531,142.4414,145.4297,147.4219,155.3906,166.3477,168.3398,177.3047,184.2773,202.207,208.1836,231.0938,249.0234,0.1556396,1.322937,4.295654,9.089355,12.7002,15.19043,16.06201,16.93359,17.43164,17.92969,18.42773,19.92188,21.54053,25.5249,36.85547,0,0,0.7781982,0.7781982,0.6225586,0.7003784,0.6225586,0.6225586,0.7781982,1.540833,3.315125,0,0,0,0,0,0,0,0,0,0,0,0,0,0,0,87.1582,86.16211,81.18164,77.69531,78.69141,77.69531,77.69531,76.69922,80.18555,71.2207,0,0,0,0,0,0,0,0,0,0,0,0,0,0,0,0,0,0,0,0,0,0,131.4844,152.4023,154.3945,188.2617,194.2383,226.1133,0,0,249.0234,0,0,4.731445,0,16.56006,30.38086,47.06543,67.73438,0,0,0,0,0,251.0156,1.914368,4.51355,8.778076,11.89087,0,0,0,56.03027,64.74609,64.74609,65.74219,66.73828,54.03809,51.29883,44.5752,38.34961,26.64551,18.42773,9.400635,4.51355,0.7781982,226.1133,190.2539,150.4102,122.5195,101.1035,80.18555,55.03418,44.5752,32.37305,18.92578,12.2644,6.412354,1.120605,233.0859,206.1914,168.3398,137.4609,129.4922,125.5078,115.0488,125.5078,134.4727,159.375,180.293,212.168,245.0391,0.6225586,0,0,0,0,0.1556396,188.2617,157.3828,142.4414,0,0,0,0,0,0,0,0,0,0,0,0,0,0,0,0,0,0,0,0,0,0,0,0,0,0,0,0,0,0,0,0,0,0,0,0,0,66.73828,57.77344,47.8125,34.61426,20.41992,10.77026,5.665283,2.178955,0.2334595,226.1133,159.375,116.543,93.63281,83.67188,66.73828,54.03809,38.34961,24.90234,14.31885,3.890991,0.5447388,231.0938,200.2148,160.3711,132.4805,118.0371,96.12305,71.2207,56.03027,42.83203,26.02295,15.19043,6.16333,2.038879,0.1556396,212.168,180.293,154.3945,132.4805,101.1035,81.18164,63.75,41.33789,26.02295,18.92578,9.089355,4.731445,1.665344,0.1556396,233.0859,188.2617,155.3906,136.4648,105.0879,83.67188,71.2207,52.29492,40.59082,26.02295,17.92969,9.089355,3.486328,0.9338379,0.07781982,218.1445,190.2539,175.3125,147.4219,115.0488,89.64844,68.73047,47.8125,33.86719,22.03857,14.69238,8.155518,4.295654,1.540833,249.0234,224.1211,204.1992,173.3203,160.3711,0,0,0,0,0,0,0,0,0,0,0,0,0,0,0,0,0,0,0,0,0,0,0,0,0,0,0,0,0,0,0,0,0,0,0
13.07373,16.93359,21.54053,25.5249,28.51318,32.37305,36.1084,39.09668,42.83203,50.55176,59.76563,68.73047,81.18164,88.65234,97.11914,99.60938,113.5547,115.0488,122.5195,129.4922,144.4336,147.4219,166.3477,178.3008,198.2227,206.1914,228.1055,239.0625,253.0078,0.1556396,0.7003784,1.213989,2.63031,4.51355,7.252808,9.711914,11.1438,12.2644,15.19043,17.92969,19.92188,23.15918,26.02295,28.51318,30.38086,36.85547,40.59082,46.31836,54.03809,62.75391,68.73047,74.20898,90.64453,102.5977,123.5156,136.4648,152.4023,155.3906,166.3477,166.3477,177.3047,186.2695,192.2461,212.168,231.0938,255,0.3112793,1.120605,1.540833,2.63031,4.51355,6.16333,8.466797,10.77026,13.07373,15.56396,18.92578,23.15918,26.64551,31.12793,35.36133,43.82813,49.55566,55.03418,61.75781,65.74219,68.73047,0,0,0,0,0,0,0,0,5.41626,2.63031,0.07781982,180.293,162.3633,140.4492,129.4922,131.4844,145.4297,154.3945,168.3398,184.2773,200.2148,210.1758,233.0859,249.0234,0.3890991,0.7003784,1.322937,2.038879,2.957153,4.295654,6.412354,9.089355,10.77026,15.56396,16.06201,0,0,0,0,0,194.2383,177.3047,168.3398,162.3633,160.3711,160.3711,160.3711,162.3633,164.3555,164.3555,164.3555,164.3555,164.3555,164.3555,164.3555,164.3555,164.3555,160.3711,159.375,155.3906,150.4102,144.4336,139.4531,129.4922,125.5078,122.5195,118.0371,113.5547,112.0605,110.5664,109.0723,106.582,105.0879,105.0879,102.5977,102.5977,102.5977,102.5977,102.5977,104.0918,104.0918,105.0879,108.0762,109.0723,110.5664,112.0605,112.0605,113.5547,116.543,118.0371,120.5273,123.5156,125.5078,126.5039,126.5039,128.4961,126.5039,126.5039,129.4922,129.4922,131.4844,134.4727,134.4727,134.4727,134.4727,134.4727,136.4648,137.4609,139.4531,140.4492,140.4492,145.4297,142.4414,144.4336,144.4336,142.4414,140.4492,140.4492,142.4414,144.4336,145.4297,147.4219,147.4219,145.4297,145.4297,147.4219,147.4219,155.3906,155.3906,150.4102,145.4297,144.4336,139.4531,137.4609,137.4609,140.4492,147.4219,154.3945,159.375,166.3477,171.3281,180.293,194.2383,202.207,212.168,231.0938,243.0469,255,0.9338379,4.295654,8.778076,12.2644,15.19043,16.06201,16.56006,17.43164,17.43164,17.92969,18.92578,21.04248,24.27979,0,0,0,0.7781982,0.7003784,0.6225586,0.6225586,0.5447388,0.6225586,0.7003784,1.665344,0,0,0,0,0,0,0,0,0,0,0,0,0,0,0,0,0,83.67188,83.67188,77.69531,77.69531,76.69922,76.69922,74.20898,74.20898,62.75391,0,0,0,0,0,0,0,0,0,0,0,0,0,0,0,0,0,0,0,0,0,0,0,0,157.3828,169.3359,177.3047,192.2461,218.1445,0,0.3112793,2.801514,9.089355,7.532959,0,0,35.36133,49.55566,67.73438,76.69922,109.0723,0,0,0,0.3112793,2.038879,3.128357,0,0,0,0,36.1084,44.5752,59.76563,59.76563,66.73828,64.74609,55.03418,49.55566,43.82813,36.85547,26.64551,18.42773,9.089355,4.077759,0.5447388,212.168,184.2773,152.4023,119.5313,99.60938,82.17773,57.77344,48.80859,35.36133,19.92188,11.1438,4.51355,0.2334595,218.1445,194.2383,159.375,134.4727,120.5273,119.5313,108.0762,118.0371,125.5078,152.4023,173.3203,204.1992,241.0547,0.4669189,0.4669189,0,0,0,0,206.1914,144.4336,132.4805,0,0,0,0,0,0,0,0,0,0,0,0,0,0,0,0,0,0,0,0,0,0,0,0,0,0,0,0,0,0,0,0,0,0,0,0,0,56.03027,55.03418,45.32227,36.85547,24.27979,11.1438,3.890991,0.7003784,218.1445,182.2852,139.4531,109.0723,94.62891,83.67188,66.73828,55.03418,39.09668,26.64551,15.19043,4.51355,0.7781982,237.0703,204.1992,164.3555,136.4648,119.5313,98.61328,71.2207,57.02637,45.32227,27.89063,15.56396,6.412354,2.038879,0.2334595,216.1523,194.2383,154.3945,136.4648,99.60938,87.1582,61.75781,44.5752,26.02295,17.92969,7.252808,3.890991,1.213989,0.2334595,233.0859,192.2461,149.4141,128.4961,94.62891,74.20898,61.75781,47.06543,36.1084,24.27979,16.93359,8.155518,3.673096,0.9338379,0.3890991,222.1289,200.2148,175.3125,149.4141,113.5547,89.64844,65.74219,44.5752,31.875,19.42383,11.51733,7.844238,3.315125,0.9338379,222.1289,214.1602,178.3008,159.375,142.4414,0,0,0,0,0,0,0,0,0,0,0,0,0,0,0,0,0,0,0,0,0,0,0,0,0,0,0,0,0,0,0,0,0,0,0
13.44727,17.92969,20.41992,25.5249,28.51318,32.37305,35.36133,39.09668,41.33789,47.8125,55.03418,59.76563,72.2168,83.67188,96.12305,101.1035,112.0605,115.0488,120.5273,126.5039,139.4531,144.4336,162.3633,171.3281,188.2617,208.1836,228.1055,237.0703,253.0078,0.3112793,0.6225586,1.213989,2.47467,3.673096,5.665283,7.844238,9.089355,10.77026,14.31885,15.56396,21.04248,22.03857,26.02295,27.26807,30.38086,36.1084,39.84375,45.32227,51.29883,58.76953,67.73438,75.70313,88.65234,99.60938,123.5156,134.4727,152.4023,149.4141,162.3633,164.3555,173.3203,180.293,198.2227,212.168,228.1055,249.0234,0.07781982,0.7781982,1.027222,1.914368,3.890991,6.412354,9.089355,11.1438,13.44727,15.56396,16.93359,20.41992,26.64551,31.12793,39.09668,42.83203,48.80859,54.03809,60.76172,65.74219,68.73047,0,0,0,0,0,0,0,0,0,0,0,171.3281,145.4297,134.4727,123.5156,126.5039,145.4297,159.375,168.3398,186.2695,206.1914,208.1836,226.1133,245.0391,0.1556396,0.6225586,1.213989,1.789856,2.63031,5.41626,6.972656,9.089355,11.89087,14.69238,15.56396,14.69238,0,0,0,0,196.2305,180.293,169.3359,164.3555,162.3633,162.3633,162.3633,162.3633,164.3555,164.3555,164.3555,162.3633,166.3477,166.3477,166.3477,164.3555,164.3555,160.3711,159.375,155.3906,150.4102,144.4336,139.4531,129.4922,125.5078,122.5195,119.5313,115.0488,113.5547,113.5547,112.0605,110.5664,109.0723,108.0762,106.582,105.0879,105.0879,106.582,106.582,108.0762,108.0762,110.5664,112.0605,113.5547,115.0488,116.543,116.543,116.543,119.5313,119.5313,122.5195,125.5078,128.4961,129.4922,131.4844,131.4844,129.4922,131.4844,131.4844,132.4805,134.4727,136.4648,136.4648,137.4609,137.4609,137.4609,137.4609,139.4531,140.4492,144.4336,145.4297,147.4219,145.4297,145.4297,144.4336,144.4336,142.4414,144.4336,147.4219,147.4219,150.4102,152.4023,152.4023,150.4102,150.4102,150.4102,154.3945,155.3906,157.3828,149.4141,144.4336,139.4531,139.4531,139.4531,140.4492,145.4297,149.4141,154.3945,157.3828,168.3398,173.3203,186.2695,196.2305,202.207,212.168,212.168,226.1133,241.0547,0.9338379,3.486328,7.844238,11.89087,14.31885,15.56396,16.06201,16.93359,16.93359,17.92969,18.42773,19.92188,22.66113,0,0,0,0.9338379,0.7781982,0.5447388,0.5447388,0.5447388,0.5447388,0.7781982,3.673096,0,0,0,0,0,0,0,0,0,53.29102,71.2207,61.75781,0,0,0,0,88.65234,80.18555,82.17773,75.70313,76.69922,74.20898,75.70313,72.2168,75.70313,66.73828,0,0,0,0,0,0,0,0,0,0,0,0,0,0,0,0,0,0,0,0,0,0,0,0,140.4492,150.4102,149.4141,155.3906,178.3008,196.2305,235.0781,0,11.1438,0,0,0,29.88281,47.06543,61.75781,73.21289,105.0879,0,0,0,0.3112793,1.914368,2.801514,0,0,14.69238,21.54053,33.86719,40.59082,61.75781,64.74609,68.73047,62.75391,53.29102,44.5752,38.34961,30.38086,24.27979,16.06201,8.466797,3.890991,0.9338379,222.1289,192.2461,147.4219,113.5547,94.62891,75.70313,51.29883,44.5752,32.37305,16.06201,8.778076,3.890991,0.1556396,202.207,186.2695,149.4141,120.5273,108.0762,109.0723,96.12305,104.0918,110.5664,137.4609,162.3633,196.2305,235.0781,0,0,0,0,0,1.431885,210.1758,145.4297,129.4922,0,0,0,0,0,0,0,0,0,0,0,0,0,0,0,0,0,0,0,0,0,0,0,0,0,0,0,0,0,0,0,0,0,0,0,0,0,62.75391,57.77344,47.06543,36.1084,22.66113,9.711914,3.673096,1.027222,235.0781,202.207,160.3711,125.5078,104.0918,93.63281,70.22461,55.03418,38.34961,26.02295,11.89087,0,0.5447388,241.0547,200.2148,173.3203,149.4141,126.5039,98.61328,74.20898,59.76563,44.5752,27.89063,15.56396,5.914307,1.665344,0.3112793,218.1445,194.2383,155.3906,131.4844,99.60938,88.65234,64.74609,51.29883,29.88281,18.42773,8.155518,3.673096,0.9338379,0,222.1289,182.2852,147.4219,123.5156,92.13867,70.22461,59.76563,42.83203,31.875,21.54053,13.44727,5.167236,1.789856,0.2334595,249.0234,220.1367,192.2461,169.3359,140.4492,105.0879,82.17773,61.75781,42.08496,31.12793,20.41992,10.77026,7.532959,3.128357,0.6225586,220.1367,218.1445,178.3008,154.3945,142.4414,149.4141,0,0,0,0,0,0,0,0,0,0,0,0,0,0,0,0,0,0,0,0,0,0,0,0,0,0,0,0,0,0,0,0,0,0
12.7002,15.19043,20.41992,24.90234,28.51318,32.37305,36.1084,37.60254,42.83203,45.32227,51.29883,58.76953,68.73047,82.17773,88.65234,97.11914,106.582,109.0723,120.5273,125.5078,140.4492,142.4414,164.3555,173.3203,190.2539,206.1914,226.1133,235.0781,245.0391,0.07781982,0.7003784,1.540833,2.334595,3.673096,4.731445,6.692505,8.155518,11.51733,13.94531,16.56006,18.42773,21.54053,24.27979,26.64551,29.88281,36.1084,42.83203,48.80859,52.29492,62.75391,71.2207,75.70313,84.66797,99.60938,116.543,132.4805,150.4102,157.3828,164.3555,162.3633,169.3359,177.3047,188.2617,202.207,222.1289,239.0625,0,0.5447388,1.213989,2.038879,4.077759,6.16333,8.778076,10.77026,13.07373,14.31885,16.56006,21.54053,23.15918,27.26807,32.37305,39.84375,48.80859,53.29102,58.76953,63.75,65.74219,0,0,0,0,0,0,0,0,7.844238,0,0,168.3398,136.4648,129.4922,119.5313,119.5313,136.4648,152.4023,157.3828,173.3203,190.2539,202.207,228.1055,243.0469,0.1556396,0.5447388,1.431885,1.789856,2.801514,4.949341,5.914307,7.844238,10.08545,13.07373,15.19043,13.44727,0,0,0,0,198.2227,182.2852,171.3281,164.3555,160.3711,160.3711,160.3711,160.3711,164.3555,164.3555,164.3555,164.3555,164.3555,164.3555,164.3555,162.3633,162.3633,159.375,157.3828,152.4023,147.4219,140.4492,137.4609,129.4922,126.5039,123.5156,120.5273,116.543,116.543,115.0488,115.0488,113.5547,113.5547,112.0605,110.5664,109.0723,109.0723,110.5664,112.0605,113.5547,112.0605,115.0488,116.543,118.0371,118.0371,120.5273,120.5273,120.5273,122.5195,123.5156,125.5078,128.4961,129.4922,131.4844,132.4805,134.4727,134.4727,134.4727,134.4727,136.4648,137.4609,139.4531,140.4492,140.4492,140.4492,140.4492,140.4492,142.4414,144.4336,145.4297,147.4219,147.4219,145.4297,147.4219,145.4297,145.4297,145.4297,147.4219,150.4102,152.4023,155.3906,157.3828,157.3828,155.3906,155.3906,155.3906,154.3945,152.4023,147.4219,142.4414,140.4492,137.4609,136.4648,136.4648,139.4531,144.4336,152.4023,154.3945,164.3555,168.3398,171.3281,184.2773,192.2461,200.2148,206.1914,212.168,222.1289,239.0625,1.120605,3.673096,7.532959,12.7002,13.94531,15.56396,16.06201,16.93359,16.93359,17.92969,18.42773,21.04248,0,0,0,0,1.789856,0.7781982,0.5447388,0.5447388,0.4669189,0.3890991,0.7003784,0,0,0,6.692505,8.466797,0,0,0,0,40.59082,57.02637,71.2207,76.69922,86.16211,0,0,0,87.1582,81.18164,82.17773,74.20898,75.70313,74.20898,75.70313,72.2168,76.69922,0,0,0,0,0,0,0,0,0,0,0,0,0,0,0,0,0,0,0,0,0,0,0,0,0,109.0723,119.5313,116.543,131.4844,137.4609,154.3945,202.207,0.7781982,5.665283,8.778076,13.07373,14.69238,24.90234,42.08496,55.03418,74.20898,104.0918,0,0,0,0,2.47467,3.315125,5.914307,6.972656,11.89087,19.42383,30.38086,39.09668,55.03418,57.02637,58.76953,56.03027,50.55176,43.82813,37.60254,31.12793,24.27979,16.56006,7.844238,3.486328,0.5447388,216.1523,188.2617,145.4297,110.5664,99.60938,76.69922,55.03418,42.08496,33.12012,18.42773,9.711914,4.731445,0.8560181,212.168,190.2539,149.4141,119.5313,105.0879,106.582,90.64453,98.61328,101.1035,131.4844,157.3828,198.2227,220.1367,253.0078,0,0,0,0,0,178.3008,128.4961,108.0762,0,0,0,0,0,0,0,0,0,0,0,0,0,0,0,0,0,0,0,0,0,0,0,0,0,0,0,0,0,0,0,0,0,0,0,0,66.73828,71.2207,59.76563,47.8125,33.86719,22.03857,7.532959,3.128357,0.6225586,237.0703,192.2461,162.3633,129.4922,108.0762,90.64453,75.70313,59.76563,40.59082,24.90234,13.07373,3.128357,0.7003784,253.0078,218.1445,184.2773,162.3633,132.4805,102.5977,72.2168,58.76953,43.82813,28.51318,16.06201,7.252808,2.47467,0.5447388,224.1211,190.2539,147.4219,118.0371,89.64844,78.69141,59.76563,48.80859,33.12012,18.92578,8.155518,2.957153,0.5447388,239.0625,212.168,175.3125,145.4297,123.5156,90.64453,65.74219,57.77344,39.84375,27.89063,19.92188,11.51733,3.486328,1.665344,0.1556396,239.0625,214.1602,180.293,150.4102,122.5195,89.64844,72.2168,53.29102,35.36133,29.88281,19.42383,10.77026,8.466797,4.731445,0.8560181,237.0703,216.1523,175.3125,142.4414,132.4805,126.5039,0,0,0,0,0,0,0,0,0,0,0,0,0,0,0,0,0,0,0,0,0,0,0,0,0,0,0,0,0,0,0,0,0,0
12.7002,14.69238,18.42773,23.78174,28.51318,33.12012,38.34961,40.59082,42.83203,44.5752,51.29883,55.03418,65.74219,75.70313,88.65234,94.62891,106.582,109.0723,119.5313,125.5078,140.4492,144.4336,160.3711,171.3281,190.2539,206.1914,224.1211,239.0625,251.0156,0.3890991,0.7781982,1.540833,1.914368,2.957153,4.51355,5.914307,7.844238,10.45898,14.31885,16.06201,17.92969,20.41992,24.27979,26.64551,31.875,36.85547,42.08496,47.06543,53.29102,59.76563,61.75781,72.2168,82.17773,89.64844,113.5547,132.4805,149.4141,152.4023,159.375,160.3711,169.3359,180.293,190.2539,206.1914,220.1367,237.0703,255,0.3890991,1.027222,1.789856,3.486328,4.949341,7.252808,10.45898,12.7002,14.69238,17.43164,19.92188,26.02295,27.89063,32.37305,38.34961,45.32227,48.80859,56.03027,60.76172,60.76172,0,0,0,0,0,0,0,18.92578,9.711914,5.41626,1.027222,182.2852,150.4102,137.4609,125.5078,118.0371,132.4805,144.4336,150.4102,166.3477,186.2695,202.207,233.0859,245.0391,255,0.4669189,1.213989,1.665344,2.957153,4.949341,7.252808,8.466797,11.51733,13.07373,13.07373,13.94531,0,0,0,0,202.207,184.2773,175.3125,166.3477,164.3555,162.3633,162.3633,162.3633,164.3555,164.3555,166.3477,164.3555,166.3477,164.3555,164.3555,160.3711,160.3711,157.3828,155.3906,152.4023,149.4141,142.4414,137.4609,129.4922,126.5039,123.5156,120.5273,118.0371,118.0371,118.0371,118.0371,116.543,115.0488,115.0488,112.0605,112.0605,112.0605,115.0488,115.0488,116.543,116.543,118.0371,119.5313,119.5313,120.5273,123.5156,125.5078,125.5078,126.5039,126.5039,126.5039,129.4922,131.4844,134.4727,136.4648,137.4609,139.4531,139.4531,139.4531,140.4492,140.4492,142.4414,145.4297,144.4336,144.4336,144.4336,144.4336,145.4297,147.4219,149.4141,150.4102,150.4102,149.4141,150.4102,150.4102,150.4102,150.4102,152.4023,154.3945,157.3828,159.375,160.3711,160.3711,159.375,157.3828,155.3906,154.3945,147.4219,144.4336,139.4531,137.4609,136.4648,137.4609,136.4648,137.4609,142.4414,145.4297,152.4023,155.3906,166.3477,173.3203,182.2852,190.2539,192.2461,192.2461,202.207,220.1367,241.0547,1.322937,5.41626,8.778076,11.89087,13.44727,15.19043,15.56396,17.43164,17.43164,18.92578,18.92578,21.54053,0,0,0,0,2.038879,0.8560181,0.3890991,0.3112793,0.2334595,0.2334595,0.5447388,0,0,6.972656,9.711914,10.77026,0,0,0,0,50.55176,64.74609,75.70313,87.1582,99.60938,0,0,0,99.60938,82.17773,83.67188,75.70313,76.69922,73.21289,74.20898,70.22461,74.20898,0,0,0,0,0,0,18.92578,9.711914,0,0,0,0,0,0,0,0,0,0,0,0,0,0,0,0,0,0,112.0605,105.0879,120.5273,145.4297,175.3125,224.1211,1.431885,6.412354,10.45898,14.31885,15.19043,31.12793,49.55566,61.75781,82.17773,105.0879,131.4844,164.3555,210.1758,241.0547,0.4669189,1.027222,3.673096,6.972656,13.07373,22.66113,34.61426,38.34961,54.03809,55.03418,55.03418,52.29492,49.55566,41.33789,36.1084,27.89063,20.41992,12.2644,6.16333,3.128357,0.8560181,235.0781,208.1836,162.3633,119.5313,105.0879,78.69141,55.03418,41.33789,31.875,17.92969,9.089355,3.673096,0.6225586,214.1602,180.293,142.4414,115.0488,97.11914,96.12305,82.17773,93.63281,94.62891,123.5156,160.3711,190.2539,212.168,249.0234,0.1556396,0,0,0,0,168.3398,118.0371,97.11914,0,0,0,0,0,0,0,0,0,0,0,0,0,0,0,0,0,0,0,0,0,0,0,0,0,0,0,0,0,0,0,0,0,0,0,0,57.02637,60.76172,56.03027,41.33789,32.37305,19.92188,8.155518,1.914368,0.2334595,210.1758,177.3047,154.3945,128.4961,105.0879,92.13867,75.70313,53.29102,38.34961,21.54053,10.45898,2.178955,1.027222,0.1556396,220.1367,188.2617,171.3281,136.4648,97.11914,72.2168,58.76953,40.59082,29.13574,18.42773,9.711914,3.486328,1.213989,235.0781,190.2539,152.4023,122.5195,89.64844,77.69531,61.75781,48.80859,32.37305,17.43164,7.252808,2.178955,0.2334595,237.0703,214.1602,173.3203,145.4297,123.5156,87.1582,62.75391,52.29492,36.1084,25.5249,19.42383,11.89087,3.486328,0,0.1556396,222.1289,198.2227,173.3203,140.4492,108.0762,87.1582,68.73047,49.55566,36.1084,31.12793,20.41992,10.77026,8.155518,3.890991,0.4669189,226.1133,214.1602,173.3203,137.4609,122.5195,115.0488,0,0,0,0,0,0,0,0,0,0,0,0,0,0,0,0,0,0,0,0,0,0,0,0,0,0,0,0,0,0,0,0,0,0
10.77026,13.94531,15.56396,20.41992,26.64551,33.12012,39.84375,41.33789,45.32227,47.06543,51.29883,55.03418,66.73828,74.20898,83.67188,90.64453,101.1035,106.582,119.5313,125.5078,145.4297,149.4141,164.3555,173.3203,188.2617,200.2148,220.1367,233.0859,245.0391,0.2334595,0.3890991,1.431885,2.038879,2.957153,3.890991,5.914307,6.972656,10.45898,12.7002,15.19043,16.56006,18.92578,22.03857,26.64551,32.37305,38.34961,43.82813,49.55566,59.76563,63.75,64.74609,70.22461,78.69141,93.63281,112.0605,136.4648,152.4023,157.3828,160.3711,164.3555,169.3359,175.3125,188.2617,202.207,218.1445,233.0859,253.0078,0.4669189,1.213989,1.914368,3.128357,4.077759,6.412354,9.089355,11.1438,14.69238,18.92578,19.92188,23.15918,27.26807,32.37305,39.84375,47.06543,54.03809,57.77344,62.75391,61.75781,0,0,0,0,0,0,0,0,0,5.914307,0.7003784,194.2383,154.3945,144.4336,129.4922,122.5195,134.4727,142.4414,149.4141,164.3555,186.2695,196.2305,224.1211,239.0625,0,0.3890991,1.213989,1.540833,2.957153,4.949341,6.972656,8.466797,10.08545,13.44727,12.7002,11.89087,0,0,0,0,204.1992,186.2695,175.3125,166.3477,162.3633,159.375,160.3711,160.3711,162.3633,162.3633,164.3555,162.3633,164.3555,162.3633,162.3633,160.3711,159.375,155.3906,154.3945,150.4102,147.4219,142.4414,137.4609,131.4844,128.4961,125.5078,122.5195,120.5273,122.5195,122.5195,122.5195,120.5273,118.0371,116.543,113.5547,115.0488,115.0488,118.0371,119.5313,122.5195,120.5273,122.5195,122.5195,123.5156,123.5156,126.5039,126.5039,128.4961,129.4922,129.4922,129.4922,132.4805,132.4805,136.4648,137.4609,142.4414,142.4414,144.4336,144.4336,145.4297,144.4336,147.4219,149.4141,147.4219,147.4219,149.4141,149.4141,150.4102,152.4023,152.4023,154.3945,152.4023,152.4023,152.4023,154.3945,154.3945,155.3906,157.3828,159.375,160.3711,162.3633,164.3555,164.3555,162.3633,160.3711,159.375,154.3945,149.4141,142.4414,139.4531,137.4609,137.4609,132.4805,136.4648,139.4531,144.4336,149.4141,154.3945,159.375,162.3633,171.3281,175.3125,182.2852,188.2617,192.2461,204.1992,228.1055,0.4669189,2.47467,6.972656,9.711914,12.7002,13.94531,15.19043,16.06201,17.92969,17.92969,19.42383,19.92188,23.15918,0,0,0,0,2.47467,0.8560181,0.4669189,0.2334595,0.2334595,0.1556396,0.4669189,0,0,9.400635,11.1438,13.07373,16.56006,0,0,57.77344,57.02637,66.73828,77.69531,96.12305,113.5547,139.4531,0,0,105.0879,82.17773,82.17773,74.20898,75.70313,73.21289,73.21289,68.73047,74.20898,0,0,0,0,0,0,0,0,0,0,0,0,0,0,0,0,0,0,0,0,0,0,0,0,0,0,118.0371,115.0488,123.5156,152.4023,190.2539,243.0469,1.914368,6.16333,7.844238,10.08545,10.77026,0,0,0,0,96.12305,132.4805,169.3359,210.1758,237.0703,0.1556396,0.6225586,3.128357,6.412354,12.2644,24.90234,38.34961,40.59082,52.29492,51.29883,49.55566,47.06543,45.32227,38.34961,31.12793,23.78174,16.56006,10.08545,4.731445,1.914368,0.6225586,235.0781,204.1992,159.375,122.5195,98.61328,77.69531,55.03418,39.09668,29.88281,18.42773,9.089355,4.077759,0.6225586,218.1445,182.2852,145.4297,120.5273,104.0918,96.12305,83.67188,86.16211,88.65234,108.0762,144.4336,177.3047,204.1992,233.0859,245.0391,0,0,0,224.1211,155.3906,106.582,88.65234,0,0,0,0,0,0,0,0,0,0,0,0,0,0,0,0,0,0,0,0,0,0,0,0,0,0,0,0,0,0,0,0,0,0,0,56.03027,55.03418,61.75781,53.29102,37.60254,30.38086,20.41992,8.466797,2.178955,0.7003784,226.1133,184.2773,155.3906,123.5156,97.11914,78.69141,62.75391,47.8125,33.86719,21.54053,10.45898,2.63031,0.7003784,253.0078,210.1758,186.2695,152.4023,120.5273,87.1582,65.74219,52.29492,36.85547,27.26807,16.93359,10.08545,3.673096,1.322937,235.0781,184.2773,144.4336,110.5664,81.18164,66.73828,48.80859,39.84375,27.89063,16.56006,7.844238,3.128357,0.5447388,241.0547,210.1758,173.3203,134.4727,110.5664,80.18555,55.03418,48.80859,33.12012,24.27979,16.93359,11.1438,3.128357,1.540833,253.0078,224.1211,198.2227,171.3281,134.4727,106.582,82.17773,64.74609,47.8125,36.1084,29.13574,19.92188,11.1438,8.155518,3.890991,0.7003784,241.0547,220.1367,175.3125,142.4414,115.0488,101.1035,0,0,0,0,0,0,0,0,0,0,0,0,0,0,0,0,0,0,0,0,0,0,0,0,0,0,0,0,0,0,0,0,0,0
10.77026,13.94531,14.69238,19.92188,27.26807,35.36133,39.84375,45.32227,46.31836,47.06543,54.03809,57.02637,65.74219,73.21289,81.18164,84.66797,97.11914,106.582,119.5313,128.4961,144.4336,150.4102,166.3477,171.3281,184.2773,202.207,216.1523,231.0938,243.0469,0.1556396,0.4669189,1.120605,1.665344,2.63031,3.315125,4.949341,6.412354,9.089355,11.51733,13.44727,16.06201,18.42773,21.04248,25.5249,29.88281,35.36133,42.08496,47.8125,52.29492,59.76563,63.75,66.73828,75.70313,90.64453,113.5547,128.4961,150.4102,155.3906,160.3711,166.3477,173.3203,186.2695,198.2227,210.1758,222.1289,233.0859,253.0078,0.6225586,1.322937,1.914368,2.957153,3.486328,5.41626,7.844238,11.1438,14.31885,17.92969,19.92188,22.66113,27.89063,32.37305,40.59082,46.31836,52.29492,57.02637,59.76563,59.76563,0,0,0,0,0,0,0,0,13.07373,7.252808,2.178955,228.1055,171.3281,150.4102,125.5078,120.5273,131.4844,140.4492,142.4414,164.3555,182.2852,194.2383,220.1367,233.0859,253.0078,0.2334595,1.027222,1.540833,2.801514,4.295654,6.692505,7.844238,10.45898,12.2644,12.7002,12.7002,0,0,0,0,208.1836,190.2539,178.3008,169.3359,164.3555,160.3711,162.3633,162.3633,162.3633,162.3633,164.3555,162.3633,162.3633,162.3633,160.3711,159.375,159.375,157.3828,155.3906,150.4102,147.4219,142.4414,137.4609,132.4805,129.4922,126.5039,125.5078,125.5078,125.5078,125.5078,126.5039,125.5078,123.5156,120.5273,118.0371,119.5313,119.5313,120.5273,122.5195,123.5156,123.5156,123.5156,125.5078,126.5039,128.4961,129.4922,129.4922,131.4844,132.4805,132.4805,134.4727,137.4609,136.4648,139.4531,140.4492,144.4336,144.4336,145.4297,145.4297,147.4219,147.4219,150.4102,152.4023,152.4023,150.4102,152.4023,152.4023,154.3945,155.3906,155.3906,159.375,157.3828,155.3906,157.3828,157.3828,157.3828,159.375,160.3711,162.3633,162.3633,166.3477,168.3398,168.3398,168.3398,166.3477,160.3711,154.3945,147.4219,142.4414,139.4531,136.4648,137.4609,137.4609,137.4609,137.4609,140.4492,147.4219,147.4219,157.3828,166.3477,171.3281,178.3008,182.2852,190.2539,196.2305,212.168,243.0469,1.540833,5.41626,9.089355,11.1438,13.44727,14.31885,15.56396,16.56006,18.42773,18.92578,21.54053,23.15918,0,0,0,0,0,0,0.9338379,0.3890991,0.3112793,0.2334595,0.2334595,0.7003784,0,0,10.45898,12.7002,13.44727,21.04248,0,0,62.75391,65.74219,76.69922,89.64844,110.5664,129.4922,157.3828,157.3828,0,0,87.1582,82.17773,73.21289,73.21289,71.2207,71.2207,66.73828,73.21289,0,0,0,0,0,0,0,0,0,0,0,0,0,0,0,0,0,0,0,0,0,0,0,0,0,104.0918,113.5547,0,122.5195,142.4414,186.2695,216.1523,0.7003784,2.63031,5.914307,9.400635,15.19043,0,0,0,0,0,112.0605,154.3945,192.2461,220.1367,249.0234,0.3890991,0,4.949341,12.7002,25.5249,36.1084,39.09668,50.55176,48.80859,42.83203,42.83203,41.33789,33.12012,27.26807,22.03857,13.94531,8.155518,3.673096,0.9338379,251.0156,220.1367,182.2852,145.4297,115.0488,93.63281,73.21289,47.06543,29.88281,22.03857,13.94531,6.692505,3.486328,0.7781982,224.1211,180.293,147.4219,119.5313,104.0918,92.13867,83.67188,89.64844,97.11914,112.0605,155.3906,180.293,190.2539,220.1367,228.1055,0,0,0,186.2695,147.4219,115.0488,98.61328,0,0,0,0,0,0,0,0,0,0,0,0,0,0,0,0,0,0,0,0,0,0,0,0,0,0,0,0,0,0,0,0,0,0,0,55.03418,0,56.03027,43.82813,33.12012,25.5249,17.43164,7.532959,2.63031,0.7003784,228.1055,188.2617,160.3711,126.5039,101.1035,83.67188,63.75,47.06543,35.36133,22.66113,12.2644,3.673096,1.120605,245.0391,202.207,168.3398,147.4219,116.543,86.16211,66.73828,52.29492,34.61426,25.5249,15.56396,9.400635,4.295654,1.665344,233.0859,168.3398,132.4805,98.61328,76.69922,55.03418,40.59082,31.875,22.66113,14.31885,8.466797,3.890991,0.7781982,239.0625,196.2305,149.4141,122.5195,105.0879,77.69531,56.03027,47.8125,31.875,21.54053,15.19043,9.089355,2.63031,0.9338379,237.0703,202.207,182.2852,162.3633,131.4844,108.0762,87.1582,68.73047,49.55566,37.60254,27.89063,16.56006,8.778076,5.914307,2.47467,0.7003784,0,231.0938,186.2695,152.4023,118.0371,92.13867,0,0,0,0,0,0,0,0,0,0,0,0,0,0,0,0,0,0,0,0,0,0,0,0,0,0,0,0,0,0,0,0,0,0
10.45898,13.07373,14.69238,19.92188,25.5249,31.12793,39.84375,43.82813,46.31836,47.8125,56.03027,57.02637,63.75,71.2207,78.69141,84.66797,96.12305,105.0879,120.5273,132.4805,144.4336,149.4141,164.3555,171.3281,180.293,196.2305,212.168,228.1055,235.0781,251.0156,0.3890991,0.9338379,1.789856,2.801514,3.673096,5.167236,6.412354,9.400635,11.1438,14.31885,15.19043,18.92578,19.92188,24.27979,29.88281,35.36133,41.33789,47.06543,49.55566,57.77344,66.73828,65.74219,77.69531,93.63281,113.5547,128.4961,147.4219,149.4141,154.3945,155.3906,173.3203,177.3047,196.2305,212.168,222.1289,237.0703,0,0.6225586,1.120605,1.914368,3.128357,3.673096,5.167236,7.252808,11.51733,13.94531,16.56006,20.41992,23.78174,28.51318,33.12012,41.33789,46.31836,51.29883,53.29102,57.77344,55.03418,0,0,0,0,0,0,0,26.64551,13.44727,7.844238,2.334595,239.0625,192.2461,162.3633,134.4727,125.5078,134.4727,139.4531,145.4297,162.3633,180.293,192.2461,222.1289,235.0781,249.0234,0.3890991,1.027222,1.322937,2.334595,3.486328,5.41626,6.972656,9.711914,11.51733,12.7002,13.44727,0,0,0,0,208.1836,190.2539,178.3008,169.3359,164.3555,160.3711,164.3555,164.3555,164.3555,164.3555,164.3555,162.3633,162.3633,160.3711,160.3711,160.3711,159.375,155.3906,155.3906,150.4102,147.4219,142.4414,139.4531,134.4727,131.4844,128.4961,128.4961,128.4961,128.4961,128.4961,129.4922,128.4961,126.5039,123.5156,122.5195,122.5195,122.5195,125.5078,125.5078,126.5039,126.5039,128.4961,128.4961,129.4922,131.4844,132.4805,132.4805,134.4727,134.4727,136.4648,137.4609,140.4492,140.4492,144.4336,145.4297,147.4219,147.4219,147.4219,149.4141,150.4102,149.4141,152.4023,154.3945,154.3945,152.4023,155.3906,154.3945,157.3828,157.3828,159.375,160.3711,160.3711,160.3711,160.3711,162.3633,160.3711,162.3633,162.3633,164.3555,166.3477,169.3359,171.3281,171.3281,173.3203,169.3359,164.3555,150.4102,149.4141,140.4492,142.4414,132.4805,134.4727,134.4727,136.4648,136.4648,137.4609,145.4297,152.4023,159.375,164.3555,171.3281,177.3047,182.2852,194.2383,208.1836,239.0625,0.4669189,3.486328,7.532959,10.08545,12.7002,13.94531,15.19043,16.56006,17.43164,18.92578,19.92188,22.03857,23.78174,0,0,0,0,0,0,0.9338379,0.3890991,0.2334595,0.1556396,0.07781982,0.4669189,0,0,11.1438,12.7002,14.31885,23.15918,0,0,72.2168,80.18555,88.65234,101.1035,118.0371,140.4492,164.3555,173.3203,0,0,89.64844,78.69141,70.22461,71.2207,68.73047,68.73047,67.73438,73.21289,0,0,0,0,0,0,0,0,0,0,0,0,0,0,0,0,0,0,0,0,0,0,0,0,0,0,122.5195,105.0879,122.5195,136.4648,168.3398,198.2227,253.0078,0.8560181,3.890991,7.252808,0,0,0,0,83.67188,94.62891,129.4922,160.3711,200.2148,228.1055,0,0,0,0,0,0,39.84375,42.08496,43.82813,40.59082,33.12012,0,35.36133,0,0,23.78174,11.89087,0,1.431885,241.0547,212.168,186.2695,160.3711,134.4727,105.0879,86.16211,68.73047,47.8125,30.38086,21.54053,14.69238,6.972656,2.63031,0.3890991,226.1133,180.293,154.3945,134.4727,115.0488,96.12305,87.1582,97.11914,93.63281,106.582,154.3945,178.3008,184.2773,226.1133,237.0703,0,0,0,184.2773,142.4414,115.0488,98.61328,0,0,0,0,0,0,0,0,0,0,0,0,0,0,0,0,0,0,0,0,0,0,0,0,0,0,0,0,0,0,0,0,0,0,0,0,0,42.83203,36.85547,28.51318,23.78174,16.93359,7.844238,2.63031,0.5447388,222.1289,182.2852,150.4102,120.5273,92.13867,74.20898,57.77344,43.82813,33.86719,21.54053,13.07373,4.295654,1.120605,237.0703,196.2305,164.3555,144.4336,118.0371,92.13867,66.73828,49.55566,32.37305,22.66113,15.19043,9.711914,4.949341,1.914368,233.0859,162.3633,131.4844,96.12305,72.2168,50.55176,39.09668,29.13574,20.41992,16.06201,11.1438,5.41626,1.789856,0.3112793,216.1523,166.3477,126.5039,105.0879,75.70313,53.29102,44.5752,26.64551,18.92578,15.19043,9.711914,3.315125,2.038879,0.2334595,218.1445,184.2773,162.3633,125.5078,102.5977,83.67188,66.73828,46.31836,33.86719,23.15918,13.44727,7.252808,4.731445,1.914368,0.5447388,251.0156,222.1289,182.2852,152.4023,116.543,0,0,0,0,0,0,0,0,0,0,0,0,0,0,0,0,0,0,0,0,0,0,0,0,0,0,0,0,0,0,0,0,0,0,0
10.08545,13.07373,15.56396,19.42383,24.90234,31.875,36.1084,40.59082,42.08496,49.55566,52.29492,59.76563,63.75,71.2207,76.69922,83.67188,94.62891,106.582,120.5273,131.4844,142.4414,152.4023,159.375,173.3203,182.2852,196.2305,214.1602,228.1055,235.0781,255,0.3112793,0.9338379,1.540833,2.63031,3.673096,4.51355,6.16333,8.466797,10.45898,13.94531,15.56396,17.92969,19.92188,24.27979,29.13574,34.61426,39.09668,43.82813,52.29492,56.03027,61.75781,67.73438,80.18555,92.13867,110.5664,122.5195,144.4336,144.4336,155.3906,160.3711,178.3008,188.2617,200.2148,212.168,222.1289,235.0781,251.0156,0.4669189,1.027222,2.038879,2.957153,3.673096,4.731445,7.252808,10.08545,13.94531,16.93359,20.41992,23.15918,29.13574,33.86719,39.84375,43.82813,47.8125,48.80859,54.03809,51.29883,0,0,0,0,0,0,0,0,11.89087,6.972656,1.789856,231.0938,186.2695,157.3828,137.4609,128.4961,142.4414,150.4102,157.3828,175.3125,192.2461,194.2383,214.1602,228.1055,251.0156,0,0.9338379,1.120605,2.178955,3.315125,4.51355,7.252808,9.711914,10.77026,13.07373,12.2644,0,0,0,0,212.168,196.2305,182.2852,175.3125,168.3398,164.3555,166.3477,166.3477,164.3555,166.3477,164.3555,162.3633,162.3633,162.3633,162.3633,162.3633,160.3711,157.3828,155.3906,150.4102,147.4219,144.4336,139.4531,136.4648,132.4805,131.4844,131.4844,131.4844,131.4844,132.4805,134.4727,131.4844,129.4922,126.5039,125.5078,123.5156,125.5078,126.5039,126.5039,128.4961,128.4961,129.4922,131.4844,131.4844,132.4805,134.4727,134.4727,136.4648,137.4609,139.4531,140.4492,144.4336,144.4336,147.4219,149.4141,152.4023,152.4023,152.4023,152.4023,154.3945,152.4023,155.3906,159.375,159.375,157.3828,159.375,157.3828,159.375,159.375,162.3633,164.3555,164.3555,166.3477,166.3477,164.3555,166.3477,166.3477,168.3398,166.3477,169.3359,171.3281,173.3203,173.3203,175.3125,171.3281,162.3633,155.3906,149.4141,142.4414,140.4492,136.4648,136.4648,136.4648,142.4414,142.4414,144.4336,147.4219,149.4141,155.3906,164.3555,169.3359,180.293,186.2695,210.1758,228.1055,0.7781982,2.63031,5.665283,8.466797,10.77026,12.7002,13.94531,15.19043,16.56006,17.43164,18.42773,20.41992,23.15918,25.5249,0,0,0,0,0,0,0.8560181,0.2334595,0.07781982,0.07781982,0,0.3890991,0,0,9.711914,11.89087,14.69238,20.41992,0,0,74.20898,81.18164,90.64453,108.0762,120.5273,134.4727,157.3828,164.3555,0,0,89.64844,77.69531,70.22461,70.22461,66.73828,65.74219,64.74609,71.2207,0,0,0,0,0,0,0,0,0,0,0,0,0,0,0,0,0,0,0,0,0,0,0,0,0,0,0,0,0,0,0,0,0,0,0,0,0,0,0,0,0,129.4922,0,0,0,0,0,0,0,0,0,0,0,0,45.32227,0,0,0,0,0,0,0,0,0,0,186.2695,168.3398,159.375,137.4609,108.0762,90.64453,72.2168,59.76563,42.83203,29.13574,19.92188,13.44727,7.532959,2.47467,0.07781982,220.1367,186.2695,159.375,139.4531,116.543,93.63281,81.18164,89.64844,90.64453,110.5664,160.3711,178.3008,194.2383,231.0938,239.0625,0,0,0,196.2305,155.3906,122.5195,105.0879,89.64844,0,0,0,0,0,0,0,0,0,0,0,0,0,0,0,0,0,0,0,0,0,0,0,0,0,0,0,0,0,0,0,0,0,24.90234,0,29.88281,34.61426,30.38086,26.64551,22.66113,13.94531,6.692505,2.334595,0.3890991,210.1758,184.2773,152.4023,115.0488,82.17773,65.74219,42.83203,32.37305,24.27979,16.93359,11.1438,4.731445,0.7781982,228.1055,186.2695,157.3828,134.4727,116.543,94.62891,70.22461,47.06543,30.38086,21.54053,14.31885,7.532959,3.673096,1.120605,228.1055,162.3633,137.4609,106.582,81.18164,51.29883,36.1084,29.88281,17.43164,13.94531,10.08545,4.949341,1.120605,253.0078,204.1992,147.4219,109.0723,87.1582,68.73047,48.80859,42.08496,23.15918,17.43164,13.44727,8.466797,2.63031,1.914368,253.0078,208.1836,184.2773,164.3555,128.4961,109.0723,88.65234,67.73438,47.8125,36.1084,21.04248,12.2644,5.914307,3.486328,0.9338379,0.1556396,239.0625,218.1445,177.3047,157.3828,118.0371,0,0,0,0,0,0,0,0,0,0,0,0,0,0,0,0,0,0,0,0,0,0,0,0,0,0,0,0,0,0,0,0,0,0,0
10.77026,13.44727,16.56006,19.92188,24.27979,28.51318,32.37305,37.60254,42.83203,46.31836,51.29883,56.03027,60.76172,66.73828,76.69922,87.1582,93.63281,102.5977,119.5313,129.4922,140.4492,150.4102,160.3711,166.3477,178.3008,200.2148,208.1836,224.1211,237.0703,253.0078,0.2334595,1.120605,1.540833,2.038879,2.957153,3.673096,5.167236,7.844238,9.400635,13.07373,15.19043,16.93359,18.92578,23.78174,26.64551,33.12012,39.84375,45.32227,50.55176,55.03418,63.75,72.2168,84.66797,98.61328,113.5547,126.5039,140.4492,144.4336,154.3945,154.3945,177.3047,180.293,200.2148,206.1914,218.1445,231.0938,243.0469,0.1556396,0.7003784,1.665344,2.63031,3.673096,5.41626,7.252808,8.778076,11.51733,15.19043,18.92578,22.66113,27.89063,32.37305,38.34961,41.33789,45.32227,47.8125,51.29883,53.29102,0,0,0,0,0,0,0,0,12.2644,7.532959,0,224.1211,160.3711,132.4805,122.5195,119.5313,132.4805,152.4023,160.3711,177.3047,192.2461,196.2305,210.1758,226.1133,239.0625,0.07781982,0.7003784,1.120605,1.665344,3.128357,4.51355,6.16333,8.155518,10.08545,11.1438,12.2644,0,0,0,0,214.1602,198.2227,184.2773,175.3125,169.3359,166.3477,168.3398,168.3398,168.3398,166.3477,166.3477,164.3555,162.3633,164.3555,164.3555,164.3555,160.3711,157.3828,155.3906,150.4102,145.4297,142.4414,140.4492,137.4609,134.4727,134.4727,134.4727,134.4727,134.4727,136.4648,136.4648,134.4727,132.4805,131.4844,131.4844,129.4922,129.4922,129.4922,129.4922,131.4844,132.4805,134.4727,134.4727,136.4648,139.4531,137.4609,137.4609,139.4531,140.4492,140.4492,142.4414,147.4219,147.4219,150.4102,154.3945,155.3906,155.3906,155.3906,155.3906,157.3828,155.3906,157.3828,160.3711,162.3633,160.3711,160.3711,160.3711,160.3711,162.3633,164.3555,166.3477,166.3477,168.3398,168.3398,168.3398,169.3359,169.3359,171.3281,171.3281,173.3203,177.3047,178.3008,178.3008,180.293,175.3125,166.3477,157.3828,154.3945,147.4219,144.4336,136.4648,137.4609,139.4531,144.4336,147.4219,152.4023,157.3828,157.3828,162.3633,169.3359,171.3281,184.2773,206.1914,235.0781,0.5447388,1.914368,4.731445,7.532959,9.711914,11.51733,13.44727,14.31885,15.56396,16.93359,17.92969,19.42383,21.54053,24.27979,27.89063,0,0,0,0,0,0,0.8560181,0.2334595,0,0,0,0.2334595,0,0,8.778076,10.77026,12.7002,16.56006,0,0,81.18164,87.1582,101.1035,119.5313,132.4805,140.4492,178.3008,0,0,0,87.1582,74.20898,65.74219,64.74609,63.75,62.75391,59.76563,67.73438,0,0,0,0,0,0,0,0,0,0,0,0,0,0,0,0,0,0,0,0,0,0,0,0,0,0,0,0,0,0,0,0,0,0,0,0,0,0,0,0,0,0,0,0,0,0,0,0,0,0,0,0,0,0,0,0,0,0,0,0,0,0,0,0,0,0,120.5273,128.4961,115.0488,99.60938,87.1582,68.73047,56.03027,41.33789,26.64551,17.43164,12.2644,7.252808,1.914368,255,212.168,184.2773,157.3828,137.4609,116.543,89.64844,75.70313,86.16211,90.64453,0,0,190.2539,196.2305,233.0859,233.0859,0,0,0,196.2305,168.3398,136.4648,110.5664,101.1035,0,0,0,0,0,0,0,0,0,0,0,0,0,0,0,0,0,0,0,0,0,0,0,0,0,0,0,0,0,0,0,0,0,0,0,36.1084,40.59082,31.875,27.89063,19.42383,13.07373,5.665283,2.957153,0.5447388,231.0938,190.2539,0,112.0605,77.69531,57.77344,39.84375,31.12793,21.04248,13.44727,11.51733,5.41626,0.1556396,224.1211,186.2695,149.4141,120.5273,108.0762,90.64453,64.74609,39.09668,28.51318,18.92578,11.51733,5.167236,2.63031,0.1556396,208.1836,145.4297,120.5273,86.16211,65.74219,42.83203,31.12793,27.89063,18.42773,14.31885,10.77026,5.167236,0.8560181,231.0938,178.3008,129.4922,97.11914,75.70313,63.75,44.5752,36.85547,22.03857,17.43164,11.51733,6.692505,2.038879,1.322937,241.0547,206.1914,177.3047,154.3945,123.5156,109.0723,89.64844,71.2207,53.29102,37.60254,21.04248,12.2644,6.972656,3.128357,1.213989,0.3890991,245.0391,210.1758,168.3398,142.4414,105.0879,0,0,0,0,0,0,0,0,0,0,0,0,0,0,0,0,0,0,0,0,0,0,0,0,0,0,0,0,0,0,0,0,0,0,0
10.77026,13.44727,16.93359,20.41992,24.90234,26.64551,29.88281,35.36133,39.09668,42.83203,50.55176,55.03418,59.76563,70.22461,75.70313,82.17773,94.62891,104.0918,116.543,128.4961,136.4648,147.4219,155.3906,166.3477,177.3047,196.2305,212.168,224.1211,239.0625,253.0078,0.2334595,0.8560181,1.120605,1.789856,2.178955,3.128357,4.731445,7.252808,9.711914,12.2644,14.31885,17.43164,18.92578,24.27979,27.89063,32.37305,39.09668,45.32227,49.55566,57.77344,63.75,68.73047,77.69531,93.63281,104.0918,116.543,136.4648,144.4336,154.3945,160.3711,175.3125,178.3008,196.2305,206.1914,222.1289,228.1055,249.0234,0.2334595,0.7781982,1.914368,3.315125,4.51355,5.665283,6.972656,8.778076,10.77026,14.69238,18.42773,23.15918,27.26807,33.12012,37.60254,40.59082,43.82813,49.55566,51.29883,57.02637,0,0,0,0,0,0,0,0,10.77026,7.532959,1.789856,222.1289,159.375,123.5156,115.0488,118.0371,131.4844,154.3945,168.3398,184.2773,196.2305,202.207,208.1836,224.1211,241.0547,0,0.8560181,1.213989,1.914368,3.128357,4.731445,6.412354,6.972656,10.45898,11.1438,13.07373,8.778076,0,0,0,0,202.207,190.2539,178.3008,171.3281,169.3359,168.3398,169.3359,168.3398,168.3398,166.3477,164.3555,164.3555,164.3555,164.3555,164.3555,162.3633,159.375,155.3906,150.4102,145.4297,142.4414,140.4492,139.4531,136.4648,137.4609,139.4531,139.4531,139.4531,139.4531,139.4531,136.4648,136.4648,136.4648,136.4648,134.4727,134.4727,134.4727,132.4805,132.4805,134.4727,136.4648,137.4609,139.4531,142.4414,142.4414,142.4414,144.4336,144.4336,144.4336,145.4297,149.4141,150.4102,154.3945,155.3906,155.3906,155.3906,155.3906,155.3906,159.375,159.375,160.3711,164.3555,166.3477,166.3477,166.3477,164.3555,164.3555,164.3555,166.3477,168.3398,168.3398,168.3398,169.3359,169.3359,173.3203,173.3203,175.3125,175.3125,175.3125,177.3047,180.293,178.3008,175.3125,173.3203,162.3633,154.3945,150.4102,145.4297,142.4414,137.4609,137.4609,147.4219,149.4141,154.3945,160.3711,159.375,160.3711,162.3633,175.3125,180.293,206.1914,216.1523,0.3112793,1.914368,4.731445,7.252808,9.089355,10.77026,12.2644,13.94531,15.19043,16.56006,17.43164,18.42773,19.42383,22.66113,26.02295,31.12793,0,0,0,0,0,2.038879,0.6225586,0.3112793,0.07781982,0.07781982,0.1556396,0.4669189,0,0,7.252808,8.155518,9.711914,11.51733,0,0,0,0,110.5664,0,0,0,0,0,0,0,92.13867,76.69922,66.73828,66.73828,62.75391,62.75391,60.76172,65.74219,0,0,0,0,0,0,0,0,0,0,0,0,0,0,0,0,0,0,0,0,0,0,0,0,0,0,0,0,0,0,0,0,0,0,0,0,0,0,0,0,0,0,0,0,0,0,0,0,0,0,0,0,0,0,0,0,0,0,0,0,0,0,0,0,0,0,77.69531,94.62891,92.13867,81.18164,77.69531,59.76563,47.8125,37.60254,26.02295,16.06201,10.08545,6.692505,1.431885,245.0391,212.168,196.2305,160.3711,136.4648,112.0605,83.67188,65.74219,81.18164,97.11914,125.5078,178.3008,202.207,206.1914,241.0547,0,0,0,0,192.2461,152.4023,132.4805,110.5664,109.0723,75.70313,0,0,0,0,0,0,0,0,0,0,0,34.61426,0,0,0,0,0,0,0,0,0,0,0,0,0,0,0,0,0,0,0,0,0,0,35.36133,37.60254,30.38086,26.64551,17.43164,10.08545,4.731445,2.63031,0.3890991,0,0,0,113.5547,81.18164,66.73828,45.32227,33.12012,20.41992,12.2644,8.155518,3.315125,255,222.1289,178.3008,136.4648,119.5313,102.5977,84.66797,64.74609,43.82813,27.89063,16.93359,8.778076,2.63031,1.120605,243.0469,198.2227,144.4336,115.0488,80.18555,58.76953,42.08496,28.51318,26.64551,16.06201,13.44727,8.778076,3.486328,0.3112793,214.1602,155.3906,118.0371,93.63281,75.70313,65.74219,49.55566,39.84375,25.5249,18.92578,12.2644,6.692505,2.63031,1.540833,0,218.1445,192.2461,162.3633,122.5195,104.0918,83.67188,59.76563,45.32227,33.86719,20.41992,11.89087,6.692505,2.957153,0.8560181,0.1556396,239.0625,204.1992,168.3398,139.4531,109.0723,80.18555,0,0,0,0,0,0,0,0,0,0,0,0,0,0,0,0,0,0,0,0,0,0,0,0,0,0,0,0,0,0,0,0,0,0
11.51733,13.44727,15.56396,17.92969,21.04248,23.15918,27.89063,32.37305,36.85547,42.08496,47.8125,52.29492,58.76953,67.73438,76.69922,83.67188,93.63281,102.5977,113.5547,123.5156,134.4727,140.4492,152.4023,159.375,177.3047,186.2695,208.1836,218.1445,233.0859,249.0234,0.2334595,0.6225586,0.9338379,1.789856,2.038879,3.315125,4.731445,7.532959,9.711914,12.2644,14.31885,16.56006,19.92188,23.78174,26.02295,34.61426,37.60254,42.08496,47.8125,57.02637,61.75781,68.73047,78.69141,89.64844,102.5977,119.5313,131.4844,137.4609,152.4023,159.375,171.3281,173.3203,192.2461,202.207,212.168,224.1211,241.0547,251.0156,0.5447388,1.431885,2.63031,3.890991,5.167236,7.252808,9.089355,10.08545,13.94531,16.93359,23.78174,26.02295,31.12793,33.86719,39.84375,42.83203,48.80859,53.29102,58.76953,0,0,0,0,0,0,0,0,0,8.155518,1.665344,214.1602,162.3633,129.4922,120.5273,116.543,129.4922,150.4102,164.3555,177.3047,188.2617,192.2461,202.207,218.1445,231.0938,245.0391,0.4669189,1.322937,2.178955,3.315125,4.295654,5.914307,7.252808,9.089355,11.1438,12.2644,9.711914,0,0,0,0,206.1914,190.2539,180.293,173.3203,169.3359,168.3398,169.3359,169.3359,169.3359,168.3398,168.3398,168.3398,168.3398,166.3477,166.3477,162.3633,159.375,154.3945,149.4141,145.4297,144.4336,142.4414,142.4414,139.4531,140.4492,142.4414,144.4336,142.4414,142.4414,142.4414,139.4531,139.4531,139.4531,139.4531,137.4609,137.4609,137.4609,136.4648,137.4609,139.4531,140.4492,140.4492,144.4336,144.4336,145.4297,145.4297,147.4219,145.4297,147.4219,147.4219,150.4102,152.4023,155.3906,157.3828,159.375,160.3711,160.3711,160.3711,162.3633,162.3633,164.3555,166.3477,168.3398,168.3398,169.3359,169.3359,168.3398,168.3398,169.3359,171.3281,171.3281,173.3203,173.3203,173.3203,175.3125,177.3047,178.3008,180.293,180.293,182.2852,184.2773,180.293,175.3125,162.3633,159.375,152.4023,152.4023,147.4219,145.4297,140.4492,142.4414,150.4102,152.4023,155.3906,168.3398,166.3477,168.3398,178.3008,190.2539,194.2383,222.1289,0,1.789856,4.077759,5.914307,8.466797,10.08545,11.1438,12.7002,14.31885,15.19043,16.56006,17.92969,18.92578,19.92188,23.15918,27.26807,35.36133,0,0,0,0,0,1.213989,0.4669189,0.2334595,0.07781982,0.07781982,0.07781982,0.4669189,0,0,8.155518,8.778076,9.400635,9.711914,14.31885,0,0,0,0,0,0,0,0,0,0,0,80.18555,71.2207,65.74219,63.75,62.75391,61.75781,60.76172,66.73828,0,0,0,0,0,0,0,0,0,0,0,0,0,0,0,0,0,0,0,0,0,0,0,0,0,0,0,0,0,0,0,0,0,0,0,0,0,0,0,0,0,0,0,0,0,0,0,0,0,0,0,0,0,0,0,0,0,0,0,0,0,0,0,0,0,0,0,94.62891,90.64453,78.69141,73.21289,56.03027,42.83203,36.85547,27.26807,16.06201,10.08545,0,0,235.0781,198.2227,192.2461,164.3555,132.4805,109.0723,88.65234,64.74609,75.70313,87.1582,113.5547,159.375,192.2461,210.1758,239.0625,241.0547,0,0,0,0,171.3281,137.4609,115.0488,105.0879,82.17773,0,0,0,0,0,0,0,0,0,0,0,0,0,0,0,0,0,0,0,0,0,0,0,0,0,0,0,0,0,0,0,0,0,0,38.34961,0,33.86719,27.89063,17.43164,9.711914,4.731445,2.47467,0.7003784,231.0938,196.2305,152.4023,125.5078,81.18164,67.73438,49.55566,33.86719,18.42773,9.400635,4.949341,1.213989,239.0625,216.1523,171.3281,136.4648,116.543,96.12305,77.69531,64.74609,44.5752,26.64551,15.19043,7.532959,2.334595,0.4669189,233.0859,180.293,144.4336,110.5664,81.18164,57.77344,41.33789,26.02295,24.27979,15.56396,14.31885,11.51733,4.51355,0.5447388,226.1133,169.3359,131.4844,101.1035,77.69531,67.73438,52.29492,40.59082,28.51318,23.78174,15.19043,9.089355,3.890991,2.63031,0.7003784,233.0859,202.207,166.3477,123.5156,104.0918,77.69531,57.02637,42.83203,33.12012,19.92188,13.44727,8.155518,3.486328,0.7781982,253.0078,212.168,178.3008,147.4219,125.5078,98.61328,83.67188,0,0,0,0,0,0,0,0,0,0,0,0,0,0,0,0,0,0,0,0,0,0,0,0,0,0,0,0,0,0,0,0,0,0
9.400635,10.77026,15.19043,16.56006,18.92578,21.54053,26.64551,29.88281,34.61426,39.09668,46.31836,53.29102,61.75781,71.2207,80.18555,84.66797,92.13867,101.1035,116.543,120.5273,129.4922,140.4492,150.4102,155.3906,171.3281,192.2461,202.207,216.1523,233.0859,243.0469,0.07781982,0.5447388,1.027222,1.027222,1.665344,2.47467,4.077759,7.252808,9.400635,12.2644,14.31885,16.06201,21.04248,25.5249,29.88281,34.61426,38.34961,43.82813,49.55566,56.03027,59.76563,67.73438,74.20898,84.66797,101.1035,112.0605,131.4844,142.4414,149.4141,159.375,168.3398,173.3203,186.2695,194.2383,216.1523,224.1211,239.0625,251.0156,0.3890991,1.120605,2.47467,3.673096,5.167236,6.692505,8.778076,11.1438,14.69238,17.43164,22.03857,26.64551,31.875,32.37305,40.59082,43.82813,48.80859,53.29102,63.75,71.2207,0,0,0,0,0,50.55176,0,0,6.972656,1.120605,206.1914,150.4102,125.5078,113.5547,110.5664,118.0371,145.4297,159.375,173.3203,188.2617,198.2227,198.2227,214.1602,224.1211,249.0234,0.5447388,1.120605,1.789856,2.957153,4.51355,5.914307,8.155518,9.089355,10.77026,11.89087,10.08545,0,0,0,0,210.1758,194.2383,184.2773,175.3125,171.3281,169.3359,171.3281,171.3281,171.3281,169.3359,169.3359,168.3398,169.3359,168.3398,166.3477,162.3633,159.375,152.4023,149.4141,145.4297,145.4297,144.4336,144.4336,142.4414,145.4297,147.4219,149.4141,149.4141,147.4219,144.4336,142.4414,142.4414,140.4492,140.4492,140.4492,140.4492,140.4492,140.4492,140.4492,144.4336,144.4336,144.4336,147.4219,147.4219,149.4141,149.4141,150.4102,150.4102,150.4102,150.4102,154.3945,155.3906,157.3828,159.375,162.3633,162.3633,164.3555,164.3555,166.3477,166.3477,168.3398,169.3359,171.3281,173.3203,173.3203,173.3203,173.3203,171.3281,173.3203,175.3125,175.3125,175.3125,177.3047,178.3008,180.293,182.2852,184.2773,186.2695,184.2773,182.2852,182.2852,175.3125,169.3359,157.3828,150.4102,145.4297,145.4297,147.4219,149.4141,147.4219,152.4023,155.3906,154.3945,162.3633,173.3203,168.3398,173.3203,186.2695,204.1992,216.1523,0,0.8560181,3.128357,5.167236,7.252808,9.089355,10.77026,11.89087,13.07373,14.69238,15.56396,16.56006,17.92969,18.92578,19.92188,24.27979,30.38086,0,0,0,0,0,0,0.5447388,0.3890991,0.2334595,0.1556396,0.1556396,0.2334595,0.7003784,0,0,7.532959,8.778076,9.711914,7.532959,8.466797,0,0,0,0,0,0,0,0,0,0,0,70.22461,68.73047,65.74219,63.75,63.75,64.74609,62.75391,71.2207,0,0,0,0,0,0,0,0,0,0,0,0,0,17.43164,0,0,0,0,0,0,0,0,0,0,0,0,0,0,0,0,0,0,0,0,0,0,0,0,0,0,0,0,0,0,0,0,0,0,0,0,0,0,0,0,0,0,0,0,0,0,0,0,0,0,0,0,63.75,89.64844,78.69141,68.73047,62.75391,50.55176,39.09668,31.875,24.27979,16.06201,0,0,0,239.0625,196.2305,186.2695,152.4023,125.5078,106.582,88.65234,65.74219,80.18555,97.11914,123.5156,160.3711,186.2695,198.2227,218.1445,0,0,0,0,216.1523,173.3203,129.4922,108.0762,93.63281,73.21289,0,0,0,0,0,0,0,0,0,0,0,0,0,0,0,0,0,0,0,0,0,0,0,0,0,0,0,0,0,0,0,0,0,0,42.08496,0,32.37305,28.51318,14.69238,8.466797,3.890991,1.914368,255,216.1523,173.3203,137.4609,109.0723,80.18555,67.73438,48.80859,33.86719,17.43164,7.532959,3.486328,0.7003784,235.0781,214.1602,173.3203,131.4844,112.0605,92.13867,70.22461,57.77344,43.82813,26.64551,13.44727,7.532959,2.63031,0.4669189,228.1055,177.3047,140.4492,106.582,71.2207,53.29102,39.84375,0,20.41992,15.56396,13.07373,10.08545,3.673096,0.3112793,194.2383,142.4414,109.0723,88.65234,66.73828,62.75391,51.29883,39.09668,29.13574,23.78174,14.31885,7.252808,3.128357,1.789856,0.3112793,226.1133,204.1992,159.375,118.0371,98.61328,77.69531,54.03809,40.59082,31.12793,19.42383,11.1438,6.16333,2.47467,0.2334595,237.0703,206.1914,171.3281,140.4492,123.5156,99.60938,84.66797,0,0,0,0,0,0,0,0,0,0,0,0,0,0,0,0,0,0,0,0,0,0,0,0,0,0,0,0,0,0,0,0,0,0
10.08545,11.51733,15.19043,16.06201,20.41992,22.03857,27.26807,31.875,35.36133,39.09668,48.80859,53.29102,61.75781,72.2168,80.18555,86.16211,97.11914,102.5977,116.543,119.5313,129.4922,136.4648,149.4141,155.3906,171.3281,182.2852,198.2227,208.1836,224.1211,239.0625,251.0156,0.2334595,0.7781982,0.7781982,1.322937,2.334595,3.486328,6.16333,8.155518,11.1438,13.94531,16.93359,22.03857,23.78174,29.88281,31.12793,34.61426,40.59082,46.31836,50.55176,58.76953,62.75391,72.2168,88.65234,101.1035,112.0605,128.4961,139.4531,145.4297,154.3945,164.3555,169.3359,180.293,198.2227,208.1836,218.1445,237.0703,251.0156,0.3890991,0.7781982,1.914368,2.957153,5.167236,6.412354,8.778076,11.1438,14.69238,17.43164,20.41992,25.5249,30.38086,31.875,36.1084,42.83203,48.80859,52.29492,66.73828,0,0,0,0,0,81.18164,67.73438,0,0,10.45898,2.038879,220.1367,162.3633,126.5039,115.0488,112.0605,116.543,147.4219,164.3555,173.3203,184.2773,192.2461,198.2227,210.1758,222.1289,239.0625,0.4669189,0.7781982,2.178955,2.63031,4.295654,4.295654,6.412354,7.532959,10.08545,11.51733,11.51733,0,0,0,0,212.168,196.2305,184.2773,177.3047,173.3203,169.3359,171.3281,171.3281,171.3281,171.3281,171.3281,169.3359,169.3359,166.3477,164.3555,160.3711,157.3828,152.4023,149.4141,147.4219,145.4297,147.4219,149.4141,149.4141,150.4102,152.4023,152.4023,150.4102,150.4102,147.4219,145.4297,145.4297,144.4336,144.4336,144.4336,144.4336,142.4414,144.4336,144.4336,147.4219,147.4219,149.4141,152.4023,152.4023,154.3945,152.4023,154.3945,154.3945,154.3945,154.3945,159.375,159.375,160.3711,162.3633,164.3555,164.3555,168.3398,168.3398,169.3359,169.3359,169.3359,169.3359,171.3281,173.3203,175.3125,175.3125,177.3047,175.3125,175.3125,177.3047,178.3008,178.3008,180.293,184.2773,184.2773,186.2695,188.2617,190.2539,186.2695,186.2695,184.2773,175.3125,168.3398,157.3828,152.4023,144.4336,145.4297,147.4219,149.4141,150.4102,157.3828,157.3828,157.3828,160.3711,173.3203,175.3125,188.2617,204.1992,224.1211,245.0391,0.7003784,2.63031,4.51355,6.412354,7.844238,9.711914,11.51733,12.7002,13.94531,15.19043,16.06201,16.93359,17.92969,19.42383,21.54053,27.89063,39.84375,0,0,0,118.0371,0,0,255,0.2334595,0.2334595,0.1556396,0.1556396,0.3890991,0.5447388,0,0,7.532959,9.089355,9.400635,7.532959,7.532959,0,0,0,0,0,0,0,0,0,0,0,64.74609,63.75,62.75391,61.75781,62.75391,64.74609,65.74219,75.70313,0,0,0,0,0,0,0,0,0,2.957153,8.778076,14.69238,0,23.15918,0,0,0,0,0,0,0,0,0,0,0,0,0,0,0,0,0,0,0,0,0,0,0,0,0,0,0,0,0,0,0,0,0,0,0,0,0,0,0,0,0,0,0,0,0,0,0,0,0,0,0,0,51.29883,60.76172,59.76563,60.76172,55.03418,43.82813,36.85547,30.38086,23.78174,15.56396,0,0,0,228.1055,196.2305,178.3008,152.4023,123.5156,112.0605,92.13867,78.69141,87.1582,102.5977,122.5195,157.3828,180.293,186.2695,210.1758,0,0,0,0,196.2305,155.3906,116.543,98.61328,83.67188,0,0,0,0,0,0,0,0,0,0,0,0,0,0,0,0,0,0,0,0,0,0,0,0,0,0,0,0,0,0,0,0,0,0,0,36.85547,38.34961,29.13574,28.51318,15.19043,10.45898,4.295654,2.334595,251.0156,220.1367,162.3633,131.4844,109.0723,87.1582,71.2207,56.03027,37.60254,19.42383,6.16333,2.038879,0.1556396,231.0938,192.2461,154.3945,118.0371,102.5977,84.66797,65.74219,58.76953,47.06543,26.64551,11.89087,6.16333,1.540833,243.0469,200.2148,152.4023,123.5156,97.11914,68.73047,52.29492,42.08496,26.02295,21.04248,16.06201,12.2644,9.711914,3.890991,0.6225586,210.1758,155.3906,123.5156,101.1035,78.69141,68.73047,57.02637,37.60254,30.38086,22.66113,12.7002,5.914307,2.957153,1.213989,0.07781982,228.1055,200.2148,164.3555,120.5273,98.61328,75.70313,54.03809,40.59082,31.12793,22.03857,14.31885,8.466797,3.315125,0.6225586,231.0938,198.2227,155.3906,131.4844,116.543,102.5977,86.16211,0,0,0,0,0,0,0,0,0,0,0,0,0,0,0,0,0,0,0,0,0,0,0,0,0,0,0,0,0,0,0,0,0,0
